ply
format ascii 1.0
element vertex 763
property float x
property float y
property float z
end_header
0.545254707336425781 0.909611821174621582 0.746907532215118408
0.261955469846725464 0.615241706371307373 0.91736757755279541
0.248128414154052734 0.611784994602203369 0.915672659873962402
0.302700817584991455 0.407406806945800781 0.786347925662994385
0.254965871572494507 0.72587960958480835 0.710941612720489502
0.34886699914932251 0.680596470832824707 0.691432416439056396
0.443889498710632324 0.675506889820098877 0.616590559482574463
0.558977901935577393 0.443927019834518433 0.832175612449645996
0.590008437633514404 0.38139835000038147 0.58198779821395874
0.317001760005950928 0.868783771991729736 0.516223251819610596
0.540376007556915283 0.135844558477401733 0.397728562355041504
0.427213519811630249 0.303985655307769775 0.063471183180809021
0.734394431114196777 0.34409630298614502 0.680727362632751465
0.198583409190177917 0.562034189701080322 0.827857315540313721
0.577485024929046631 0.214989498257637024 0.450303852558135986
0.725865006446838379 0.714866518974304199 0.159493401646614075
0.225762173533439636 0.537768900394439697 0.864023566246032715
0.336979597806930542 0.393924415111541748 0.0579211823642253876
0.231371685862541199 0.624232828617095947 0.135850608348846436
0.776671707630157471 0.716332793235778809 0.74672996997833252
0.844944179058074951 0.384499222040176392 0.300141215324401855
0.848442435264587402 0.723435044288635254 0.461324542760848999
0.659089803695678711 0.190452069044113159 0.341772317886352539
0.843967258930206299 0.391789436340332031 0.381173253059387207
0.86221766471862793 0.592393815517425537 0.515025973320007324
0.855912148952484131 0.585137009620666504 0.492129653692245483
0.657783627510070801 0.430407732725143433 0.797361314296722412
0.643798351287841797 0.260881483554840088 0.142866075038909912
0.297938227653503418 0.481162965297698975 0.0580598451197147369
0.495437800884246826 0.33948904275894165 0.616929173469543457
0.540946304798126221 0.220816880464553833 0.349058359861373901
0.262312978506088257 0.743493914604187012 0.798142969608306885
0.404158800840377808 0.488139361143112183 0.822289168834686279
0.407413601875305176 0.489543139934539795 0.859690308570861816
0.274439334869384766 0.312302619218826294 0.667619407176971436
0.797516167163848877 0.373217016458511353 0.179968178272247314
0.780717611312866211 0.382171005010604858 0.152607262134552002
0.478012740612030029 0.18723471462726593 0.306698471307754517
0.735081255435943604 0.830828845500946045 0.545058488845825195
0.46588367223739624 0.372155874967575073 0.626034080982208252
0.810341835021972656 0.568744361400604248 0.812390327453613281
0.483543097972869873 0.644521474838256836 0.185345903038978577
0.650618612766265869 0.714487135410308838 0.938914120197296143
0.352054625749588013 0.347772002220153809 0.76151573657989502
0.562467873096466064 0.851117074489593506 0.858813226222991943
0.379079878330230713 0.278609126806259155 0.140867546200752258
0.41636231541633606 0.362945050001144409 0.724599480628967285
0.376811206340789795 0.40918317437171936 0.783375442028045654
0.473974764347076416 0.190659329295158386 0.330974072217941284
0.46754106879234314 0.194595068693161011 0.354091912508010864
0.193590655922889709 0.697752475738525391 0.710673272609710693
0.524446785449981689 0.690256655216217041 0.0864759236574172974
0.333179175853729248 0.362535357475280762 0.102604515850543976
0.882506072521209717 0.441753864288330078 0.387196004390716553
0.532612621784210205 0.432529538869857788 0.79645073413848877
0.585700750350952148 0.206628069281578064 0.179259881377220154
0.588912248611450195 0.217729821801185608 0.164618983864784241
0.590828895568847656 0.224328801035881042 0.156854286789894104
0.226840183138847351 0.773170828819274902 0.623584091663360596
0.786709368228912354 0.784198284149169922 0.432586312294006348
0.766477346420288086 0.789204418659210205 0.419158250093460083
0.893073558807373047 0.565553188323974609 0.517985045909881592
0.901702523231506348 0.576183438301086426 0.483536809682846069
0.508074104785919189 0.582339107990264893 0.848037302494049072
0.591536581516265869 0.6719399094581604 0.427124947309494019
0.0890355408191680908 0.52982795238494873 0.404910147190093994
0.863326549530029297 0.450913220643997192 0.242151767015457153
0.388283640146255493 0.78643500804901123 0.178303122520446777
0.431130737066268921 0.70363616943359375 0.616820096969604492
0.247886821627616882 0.266464114189147949 0.218262419104576111
0.246125459671020508 0.263817757368087769 0.219164714217185974
0.23394322395324707 0.265819519758224487 0.233663737773895264
0.706918478012084961 0.181564480066299438 0.336750268936157227
0.835535705089569092 0.559035003185272217 0.158003196120262146
0.833976686000823975 0.560201644897460938 0.185123980045318604
0.522820889949798584 0.911373913288116455 0.69010692834854126
0.235293522477149963 0.578926444053649902 0.669058144092559814
0.150549396872520447 0.7138863205909729 0.374342501163482666
0.249964579939842224 0.194793209433555603 0.329808622598648071
0.773640573024749756 0.708273708820343018 0.826637685298919678
0.782956957817077637 0.690430641174316406 0.828109800815582275
0.750475823879241943 0.732327759265899658 0.839148819446563721
0.85900038480758667 0.396246790885925293 0.451967477798461914
0.407049089670181274 0.202022373676300049 0.173789292573928833
0.400356501340866089 0.219756662845611572 0.158914521336555481
0.785378515720367432 0.349011540412902832 0.659192323684692383
0.469792425632476807 0.913219869136810303 0.394304335117340088
0.537182331085205078 0.463072478771209717 0.181381195783615112
0.485444575548171997 0.306974560022354126 0.0955136343836784363
0.500804126262664795 0.326395541429519653 0.085235297679901123
0.119298480451107025 0.450382918119430542 0.47316095232963562
0.804217517375946045 0.414413809776306152 0.707088470458984375
0.319315463304519653 0.855217337608337402 0.469164192676544189
0.592483997344970703 0.589184284210205078 0.287553608417510986
0.826541125774383545 0.300613433122634888 0.284080386161804199
0.781304001808166504 0.201656356453895569 0.394266188144683838
0.305683910846710205 0.335690498352050781 0.727592349052429199
0.78738868236541748 0.730171382427215576 0.683472394943237305
0.347479909658432007 0.54221576452255249 0.0466346591711044312
0.263793498277664185 0.330125689506530762 0.132849067449569702
0.499143540859222412 0.817532002925872803 0.754701018333435059
0.658827364444732666 0.36883842945098877 0.487971335649490356
0.530788064002990723 0.22422751784324646 0.489347696304321289
0.109854727983474731 0.490996956825256348 0.499662786722183228
0.527213156223297119 0.915332198143005371 0.616731524467468262
0.903323888778686523 0.523840248584747314 0.457619577646255493
0.144455865025520325 0.602639317512512207 0.486370623111724854
0.216631904244422913 0.602361619472503662 0.139002576470375061
0.713410437107086182 0.639342904090881348 0.108411140739917755
0.716648340225219727 0.803326129913330078 0.279381483793258667
0.674727916717529297 0.461975991725921631 0.469970434904098511
0.767994105815887451 0.581466019153594971 0.115852609276771545
0.736524820327758789 0.830944240093231201 0.383756905794143677
0.52800440788269043 0.831337869167327881 0.825459063053131104
0.714693665504455566 0.824965834617614746 0.586156606674194336
0.459570884704589844 0.121343187987804413 0.391742616891860962
0.594592869281768799 0.334951341152191162 0.469857960939407349
0.850651919841766357 0.412691473960876465 0.258856087923049927
0.761355876922607422 0.318937569856643677 0.633184850215911865
0.51401519775390625 0.524476349353790283 0.840819895267486572
0.575514078140258789 0.525564670562744141 0.972273051738739014
0.58307039737701416 0.506793081760406494 0.963873505592346191
0.257564187049865723 0.83172076940536499 0.547848403453826904
0.25703662633895874 0.820432364940643311 0.530839025974273682
0.236198738217353821 0.34183269739151001 0.168064281344413757
0.538544178009033203 0.637426376342773438 0.0890707820653915405
0.563757181167602539 0.668001294136047363 0.717086315155029297
0.795818209648132324 0.550462961196899414 0.384838372468948364
0.805023670196533203 0.405344516038894653 0.17978745698928833
0.804638206958770752 0.402265369892120361 0.181812137365341187
0.806293070316314697 0.402851790189743042 0.184772863984107971
0.512518882751464844 0.883787393569946289 0.671196103096008301
0.79042130708694458 0.334587574005126953 0.210980549454689026
0.148808449506759644 0.457724481821060181 0.665154933929443359
0.248641088604927063 0.742492794990539551 0.797159910202026367
0.461528122425079346 0.739952385425567627 0.101383581757545471
0.440620452165603638 0.470456093549728394 0.67578965425491333
0.680808961391448975 0.213538095355033875 0.180260732769966125
0.428387343883514404 0.251550644636154175 0.451098442077636719
0.23331567645072937 0.322384387254714966 0.266590327024459839
0.371414810419082642 0.522542953491210938 0.874943077564239502
0.706388592720031738 0.692022740840911865 0.139369353652000427
0.702987551689147949 0.691564559936523438 0.139695808291435242
0.715049445629119873 0.460609346628189087 0.776954710483551025
0.843465328216552734 0.283641517162322998 0.369269877672195435
0.8590431809425354 0.541427195072174072 0.57159578800201416
0.876767873764038086 0.483422040939331055 0.303493112325668335
0.303005069494247437 0.395980149507522583 0.076498471200466156
0.703977346420288086 0.825560986995697021 0.499842226505279541
0.83294677734375 0.431645244359970093 0.210229068994522095
0.264802604913711548 0.42354816198348999 0.790743589401245117
0.475429683923721313 0.777067363262176514 0.917373239994049072
0.823322951793670654 0.234350308775901794 0.383878260850906372
0.807439625263214111 0.241403266787528992 0.420538574457168579
0.810813069343566895 0.603584349155426025 0.153586551547050476
0.375641196966171265 0.326227456331253052 0.625203728675842285
0.389113426208496094 0.338710784912109375 0.635051548480987549
0.874967515468597412 0.437581747770309448 0.534753859043121338
0.441697001457214355 0.891817808151245117 0.328293919563293457
0.727036476135253906 0.817216753959655762 0.49495232105255127
0.51846623420715332 0.577028989791870117 0.768279433250427246
0.615046083927154541 0.175636231899261475 0.365366548299789429
0.358635872602462769 0.743508577346801758 0.159600496292114258
0.37147444486618042 0.503974854946136475 0.0300309415906667709
0.24414508044719696 0.334884226322174072 0.329566836357116699
0.720710277557373047 0.286757349967956543 0.473577052354812622
0.421888202428817749 0.846560955047607422 0.218487977981567383
0.827664673328399658 0.223268866539001465 0.351427525281906128
0.283358126878738403 0.803326129913330078 0.279370129108428955
0.547791957855224609 0.531238019466400146 0.710400640964508057
0.361131101846694946 0.234797582030296326 0.161180004477500916
0.537210047245025635 0.755361437797546387 0.361317068338394165
0.869555532932281494 0.503652989864349365 0.262761831283569336
0.675626933574676514 0.567564129829406738 0.0653167963027954102
0.649509131908416748 0.543190300464630127 0.0511070713400840759
0.463786453008651733 0.779722690582275391 0.143501758575439453
0.184124991297721863 0.566779732704162598 0.708899497985839844
0.738222658634185791 0.187982380390167236 0.276679545640945435
0.412675857543945312 0.921292960643768311 0.585876762866973877
0.865759015083312988 0.575309634208679199 0.240636825561523438
0.877891957759857178 0.582962870597839355 0.28714287281036377
0.424196392297744751 0.815897464752197266 0.902494072914123535
0.46919366717338562 0.449955850839614868 0.707342088222503662
0.768949270248413086 0.772959291934967041 0.671243906021118164
0.283525794744491577 0.568039834499359131 0.72934192419052124
0.298624545335769653 0.570351719856262207 0.94737929105758667
0.335250407457351685 0.181079283356666565 0.244026318192481995
0.192489057779312134 0.422339200973510742 0.714191257953643799
0.61234968900680542 0.180681824684143066 0.21099698543548584
0.272077471017837524 0.813266396522521973 0.498083591461181641
0.489191770553588867 0.773718774318695068 0.791614115238189697
0.591446280479431152 0.904136240482330322 0.465255379676818848
0.844551026821136475 0.352637112140655518 0.363918095827102661
0.24562034010887146 0.203352391719818115 0.391562372446060181
0.817663371562957764 0.345439732074737549 0.55501788854598999
0.322210699319839478 0.615241706371307373 0.972474455833435059
0.557248711585998535 0.448231101036071777 0.864032268524169922
0.692568600177764893 0.315878123044967651 0.703961491584777832
0.701613664627075195 0.323274195194244385 0.710151910781860352
0.46796119213104248 0.760925829410552979 0.161812499165534973
0.127683788537979126 0.566234588623046875 0.245698451995849609
0.417421787977218628 0.297335207462310791 0.494002848863601685
0.24913400411605835 0.355588525533676147 0.749239921569824219
0.0970768183469772339 0.504350483417510986 0.338462024927139282
0.332157373428344727 0.867333710193634033 0.659626424312591553
0.67728811502456665 0.868189692497253418 0.616813302040100098
0.545116961002349854 0.166248723864555359 0.446431100368499756
0.211060553789138794 0.455916494131088257 0.783468544483184814
0.834099292755126953 0.749515175819396973 0.385309308767318726
0.642295479774475098 0.349742472171783447 0.762121438980102539
0.26544797420501709 0.420224905014038086 0.435850143432617188
0.255361288785934448 0.409950554370880127 0.106682397425174713
0.664883613586425781 0.776683926582336426 0.222344294190406799
0.739864528179168701 0.185799509286880493 0.375404834747314453
0.759812057018280029 0.586026549339294434 0.104259192943572998
0.762008130550384521 0.587414383888244629 0.106286346912384033
0.768166959285736084 0.584317266941070557 0.116613894701004028
0.400743842124938965 0.195270389318466187 0.401090472936630249
0.527598202228546143 0.308165937662124634 0.0575828999280929565
0.418753445148468018 0.388041704893112183 0.454653710126876831
0.325884908437728882 0.346500754356384277 0.75492703914642334
0.515105485916137695 0.786522507667541504 0.252821952104568481
0.338165283203125 0.850172042846679688 0.711968183517456055
0.86374354362487793 0.40258362889289856 0.328313082456588745
0.322817683219909668 0.326043188571929932 0.614341080188751221
0.846190810203552246 0.271572619676589966 0.336011320352554321
0.440432816743850708 0.342296868562698364 0.465333551168441772
0.646715462207794189 0.847489595413208008 0.761178016662597656
0.257961034774780273 0.814062595367431641 0.328367799520492554
0.461852043867111206 0.0787916779518127441 0.375754803419113159
0.216890394687652588 0.662748873233795166 0.161471262574195862
0.196083009243011475 0.677919864654541016 0.176537781953811646
0.394547134637832642 0.517333507537841797 0.904148876667022705
0.408623576164245605 0.340540021657943726 0.66991955041885376
0.6278420090675354 0.71170121431350708 0.94843757152557373
0.223310157656669617 0.716332793235778809 0.7467154860496521
0.205842822790145874 0.705557465553283691 0.732142746448516846
0.477988660335540771 0.724571466445922852 0.25800621509552002
0.415137320756912231 0.711625516414642334 0.98108518123626709
0.318220078945159912 0.584554135799407959 0.590008378028869629
0.875554502010345459 0.618021667003631592 0.373937070369720459
0.579869449138641357 0.861912548542022705 0.249438077211380005
0.162257358431816101 0.715982019901275635 0.521999776363372803
0.152413129806518555 0.723959684371948242 0.487912803888320923
0.351850569248199463 0.866038799285888672 0.713415086269378662
0.645700216293334961 0.869426548480987549 0.347662389278411865
0.586709022521972656 0.639258623123168945 0.321416199207305908
0.500007688999176025 0.468602567911148071 0.111786812543869019
0.197234049439430237 0.351867109537124634 0.662109732627868652
0.18217022716999054 0.63391953706741333 0.17627696692943573
0.838962137699127197 0.379739522933959961 0.553786635398864746
0.334818363189697266 0.307853251695632935 0.680803298950195312
0.312231332063674927 0.303815782070159912 0.653815329074859619
0.620382547378540039 0.350812137126922607 0.724676668643951416
0.135237917304039001 0.682208836078643799 0.290085554122924805
0.735261857509613037 0.183048516511917114 0.362188428640365601
0.765398681163787842 0.230671808123588562 0.225321933627128601
0.753567695617675781 0.241311714053153992 0.204276785254478455
0.766825616359710693 0.232290282845497131 0.222845762968063354
0.598307549953460693 0.757180571556091309 0.950106143951416016
0.591678380966186523 0.737449824810028076 0.967330217361450195
0.451364517211914062 0.467302799224853516 0.588929533958435059
0.591345131397247314 0.366013258695602417 0.355380505323410034
0.357795745134353638 0.429439753293991089 0.0282503161579370499
0.153772205114364624 0.351057231426239014 0.479804337024688721
0.478873997926712036 0.641066014766693115 0.104755237698554993
0.485735595226287842 0.846779346466064453 0.789133191108703613
0.541343808174133301 0.730400025844573975 0.94303053617477417
0.570936083793640137 0.343560963869094849 0.0310777928680181503
0.429074198007583618 0.314030736684799194 0.514677882194519043
0.837019622325897217 0.338159352540969849 0.439160913228988647
0.393006652593612671 0.463936746120452881 0.646097183227539062
0.641209125518798828 0.842646181583404541 0.713245093822479248
0.640629231929779053 0.843137264251708984 0.714832961559295654
0.90292668342590332 0.504350483417510986 0.338483303785324097
0.367816239595413208 0.740584492683410645 0.144240468740463257
0.734602689743041992 0.195344671607017517 0.39272540807723999
0.530994653701782227 0.502807915210723877 0.172875881195068359
0.181973189115524292 0.630754232406616211 0.772892355918884277
0.23177926242351532 0.451754122972488403 0.64725804328918457
0.878511786460876465 0.582012712955474854 0.444681644439697266
0.570157527923583984 0.171799942851066589 0.377423852682113647
0.223228245973587036 0.429425477981567383 0.778617560863494873
0.719616711139678955 0.403908789157867432 0.560829401016235352
0.477149695158004761 0.787844419479370117 0.588977515697479248
0.279332637786865234 0.492612332105636597 0.820147156715393066
0.768839538097381592 0.348795592784881592 0.299493134021759033
0.759702146053314209 0.730971753597259521 0.789024412631988525
0.0957145541906356812 0.522039055824279785 0.508550167083740234
0.741860687732696533 0.725101828575134277 0.775440514087677002
0.298107802867889404 0.81869131326675415 0.492738127708435059
0.590624988079071045 0.226002722978591919 0.15400870144367218
0.239813297986984253 0.81476062536239624 0.323888331651687622
0.442644208669662476 0.679047822952270508 0.726755440235137939
0.416621625423431396 0.896227777004241943 0.747186720371246338
0.217140942811965942 0.235707268118858337 0.292945533990859985
0.218734666705131531 0.237556681036949158 0.287335485219955444
0.416444748640060425 0.33877640962600708 0.0348435677587985992
0.687161445617675781 0.816613972187042236 0.804487407207489014
0.633977174758911133 0.865663409233093262 0.765791833400726318
0.448905676603317261 0.774538278579711914 0.937969744205474854
0.199279651045799255 0.693163156509399414 0.699408829212188721
0.238702282309532166 0.305711567401885986 0.219922706484794617
0.504188418388366699 0.587531924247741699 0.194249123334884644
0.645089030265808105 0.619545876979827881 0.980210065841674805
0.229202821850776672 0.425302326679229736 0.690110385417938232
0.685440719127655029 0.745244920253753662 0.172819197177886963
0.389861017465591431 0.36988908052444458 0.588530242443084717
0.363647341728210449 0.367008000612258911 0.478141248226165771
0.507977962493896484 0.435112535953521729 0.469937950372695923
0.336817502975463867 0.576505303382873535 0.971627712249755859
0.867501974105834961 0.486881464719772339 0.618767619132995605
0.376401454210281372 0.713353633880615234 0.9612923264503479
0.36355358362197876 0.713471651077270508 0.927842259407043457
0.0922099724411964417 0.516407966613769531 0.453422784805297852
0.210895583033561707 0.377694010734558105 0.166272535920143127
0.880089938640594482 0.680866479873657227 0.329659044742584229
0.167063444852828979 0.431645244359970093 0.210211619734764099
0.51633840799331665 0.260439872741699219 0.51776278018951416
0.457056283950805664 0.328990131616592407 0.542712688446044922
0.737445831298828125 0.359091907739639282 0.195052370429039001
0.179397672414779663 0.540752053260803223 0.152636557817459106
0.621264398097991943 0.438288688659667969 0.700982213020324707
0.382854342460632324 0.562462389469146729 0.260928481817245483
0.75978243350982666 0.78782886266708374 0.273772358894348145
0.148311004042625427 0.572318315505981445 0.621011435985565186
0.243816226720809937 0.754933297634124756 0.728351771831512451
0.611504733562469482 0.367858916521072388 0.606018602848052979
0.422052532434463501 0.493033796548843384 0.922523319721221924
0.244718834757804871 0.280413717031478882 0.219944894313812256
0.164386436343193054 0.603599488735198975 0.668926715850830078
0.29640468955039978 0.550806522369384766 0.0591836161911487579
0.285281658172607422 0.522641479969024658 0.0682064592838287354
0.272851556539535522 0.529967129230499268 0.0969849750399589539
0.284777909517288208 0.247052296996116638 0.452903628349304199
0.74383080005645752 0.801768004894256592 0.493720293045043945
0.393175065517425537 0.184340864419937134 0.335128813982009888
0.835809230804443359 0.465532243251800537 0.704065263271331787
0.48143690824508667 0.751242876052856445 0.584233105182647705
0.222308769822120667 0.503336250782012939 0.738291084766387939
0.229221820831298828 0.496422857046127319 0.755507349967956543
0.21059630811214447 0.464665591716766357 0.612289607524871826
0.466208875179290771 0.223096027970314026 0.364562124013900757
0.749720335006713867 0.307462722063064575 0.59284055233001709
0.866415977478027344 0.701914310455322266 0.335152596235275269
0.895272970199584961 0.475568771362304688 0.378127098083496094
0.262319296598434448 0.277922928333282471 0.445706874132156372
0.312387198209762573 0.331027895212173462 0.612516522407531738
0.644665837287902832 0.185398459434509277 0.340510070323944092
0.477179378271102905 0.622155368328094482 0.104754902422428131
0.48808172345161438 0.598811149597167969 0.145490348339080811
0.468196719884872437 0.594199955463409424 0.169815912842750549
0.484011918306350708 0.751276791095733643 0.614395380020141602
0.83531653881072998 0.683470666408538818 0.285082399845123291
0.727854549884796143 0.453931868076324463 0.102522768080234528
0.574530959129333496 0.632040441036224365 0.347254544496536255
0.875416219234466553 0.682783424854278564 0.40289008617401123
0.496999382972717285 0.38981512188911438 0.026513347402215004
0.729523301124572754 0.186334773898124695 0.379081606864929199
0.524936318397521973 0.705282032489776611 0.228455349802970886
0.674597978591918945 0.36339995265007019 0.0973314270377159119
0.26195719838142395 0.511944591999053955 0.860567808151245117
0.229451030492782593 0.465939462184906006 0.134951680898666382
0.328625470399856567 0.791587948799133301 0.226422667503356934
0.784358739852905273 0.558241426944732666 0.224531829357147217
0.218525230884552002 0.735452473163604736 0.666438937187194824
0.227095410227775574 0.310178369283676147 0.199799239635467529
0.774209380149841309 0.422969132661819458 0.772310614585876465
0.779453694820404053 0.43696892261505127 0.785677254199981689
0.276973724365234375 0.341743379831314087 0.718907058238983154
0.775717020034790039 0.245860248804092407 0.221743166446685791
0.76897740364074707 0.253128975629806519 0.209269165992736816
0.151552349328994751 0.38797411322593689 0.274694174528121948
0.266763120889663696 0.512764811515808105 0.834283113479614258
0.557579100131988525 0.92430579662322998 0.618959248065948486
0.565328538417816162 0.524160444736480713 0.523018956184387207
0.665121614933013916 0.591409385204315186 0.971459865570068359
0.486841470003128052 0.455106377601623535 0.875380218029022217
0.137594014406204224 0.530039012432098389 0.618662416934967041
0.660455822944641113 0.879446625709533691 0.456059962511062622
0.20614778995513916 0.300613433122634888 0.28406408429145813
0.694143116474151611 0.52169334888458252 0.870552420616149902
0.16280558705329895 0.569757044315338135 0.484596312046051025
0.343281775712966919 0.435813724994659424 0.787088751792907715
0.253347605466842651 0.55667954683303833 0.90875929594039917
0.786280333995819092 0.51363903284072876 0.78825986385345459
0.127010166645050049 0.461432814598083496 0.551433205604553223
0.309245675802230835 0.401017308235168457 0.584477484226226807
0.322111129760742188 0.374173402786254883 0.429867535829544067
0.586638748645782471 0.590612113475799561 0.198804214596748352
0.905199289321899414 0.542864620685577393 0.496766597032546997
0.537813484668731689 0.299933671951293945 0.0603905506432056427
0.261093229055404663 0.505839943885803223 0.19978727400302887
0.447917342185974121 0.284565985202789307 0.405340671539306641
0.56524348258972168 0.248449310660362244 0.182039946317672729
0.764917433261871338 0.344162493944168091 0.49986422061920166
0.584694623947143555 0.83122098445892334 0.877876162528991699
0.366003751754760742 0.865663409233093262 0.765784919261932373
0.506789147853851318 0.374713003635406494 0.0893556326627731323
0.163125783205032349 0.545351028442382812 0.175749659538269043
0.750452518463134766 0.2982921302318573 0.458110630512237549
0.746557652950286865 0.306704849004745483 0.453983277082443237
0.288034230470657349 0.793655335903167725 0.815014898777008057
0.29361608624458313 0.333028793334960938 0.575542628765106201
0.340394943952560425 0.338401228189468384 0.0723177641630172729
0.671278834342956543 0.8292083740234375 0.783078014850616455
0.744850397109985352 0.401235878467559814 0.104076020419597626
0.584832251071929932 0.711625516414642334 0.981089651584625244
0.564395904541015625 0.455417156219482422 0.597788155078887939
0.135746568441390991 0.432844102382659912 0.581150650978088379
0.464025706052780151 0.235120385885238647 0.442341595888137817
0.636909723281860352 0.838645696640014648 0.802429676055908203
0.273236751556396484 0.770569860935211182 0.814668178558349609
0.283367335796356201 0.766718089580535889 0.851652383804321289
0.484002798795700073 0.565321564674377441 0.957838356494903564
0.480545759201049805 0.568744361400604248 0.970716476440429688
0.705229640007019043 0.399451702833175659 0.0799615010619163513
0.794508993625640869 0.485706835985183716 0.130811870098114014
0.792222976684570312 0.479881584644317627 0.145517617464065552
0.492695927619934082 0.703465640544891357 0.869195640087127686
0.399818539619445801 0.221370548009872437 0.156242102384567261
0.555488348007202148 0.851380884647369385 0.210667252540588379
0.711860895156860352 0.29821661114692688 0.476117730140686035
0.722685754299163818 0.180938124656677246 0.327768146991729736
0.521132826805114746 0.740059077739715576 0.445657104253768921
0.648549020290374756 0.173186078667640686 0.255263924598693848
0.743458926677703857 0.425393670797348022 0.787818968296051025
0.32263299822807312 0.402990221977233887 0.795538067817687988
0.620400190353393555 0.291555643081665039 0.474054157733917236
0.146863013505935669 0.548465311527252197 0.597642004489898682
0.140439346432685852 0.541828393936157227 0.571463704109191895
0.391325801610946655 0.847241342067718506 0.294851303100585938
0.790788948535919189 0.590140759944915771 0.511928319931030273
0.809323370456695557 0.261841148138046265 0.258512198925018311
0.514207124710083008 0.773644447326660156 0.91046065092086792
0.534879684448242188 0.780490219593048096 0.924288511276245117
0.51856309175491333 0.81926041841506958 0.221846640110015869
0.401273578405380249 0.900292038917541504 0.392361819744110107
0.523644089698791504 0.41775047779083252 0.221216067671775818
0.157787367701530457 0.393389880657196045 0.450877398252487183
0.154264405369758606 0.392818063497543335 0.468237757682800293
0.864493429660797119 0.400390207767486572 0.545078396797180176
0.260432213544845581 0.671342670917510986 0.642593085765838623
0.413969695568084717 0.872806131839752197 0.49010118842124939
0.412245243787765503 0.871856868267059326 0.490677505731582642
0.560707390308380127 0.439622789621353149 0.80031895637512207
0.251204699277877808 0.314974516630172729 0.390304058790206909
0.727793991565704346 0.365388661623001099 0.10177263617515564
0.516336202621459961 0.435288667678833008 0.600451827049255371
0.49523240327835083 0.918219864368438721 0.502456367015838623
0.365403324365615845 0.848926544189453125 0.26502835750579834
0.757524788379669189 0.543580055236816406 0.353380978107452393
0.618836700916290283 0.187410354614257812 0.191326528787612915
0.811448216438293457 0.224171280860900879 0.306307375431060791
0.817100882530212402 0.237371772527694702 0.293995678424835205
0.745026051998138428 0.421191662549972534 0.495473086833953857
0.675897181034088135 0.845630645751953125 0.475579351186752319
0.297803938388824463 0.184030130505561829 0.281574457883834839
0.289638370275497437 0.189752757549285889 0.269502073526382446
0.310743659734725952 0.180243432521820068 0.328282088041305542
0.483376055955886841 0.351083874702453613 0.626670241355895996
0.553856313228607178 0.585960686206817627 0.991391360759735107
0.40998232364654541 0.38139835000038147 0.581982970237731934
0.171617120504379272 0.661753058433532715 0.201100364327430725
0.702089607715606689 0.255444347858428955 0.162948906421661377
0.14883027970790863 0.641230762004852295 0.625247955322265625
0.239434525370597839 0.574069440364837646 0.104997217655181885
0.775444865226745605 0.778362274169921875 0.563237845897674561
0.297601908445358276 0.730228662490844727 0.884659349918365479
0.435248881578445435 0.259200602769851685 0.140235975384712219
0.435566157102584839 0.272080153226852417 0.138458654284477234
0.424786597490310669 0.269941270351409912 0.137598469853401184
0.811516821384429932 0.696745336055755615 0.690035104751586914
0.700601756572723389 0.85507965087890625 0.337231427431106567
0.685563564300537109 0.851052343845367432 0.313965350389480591
0.354955434799194336 0.312959581613540649 0.0834333598613739014
0.592486739158630371 0.264510393142700195 0.491284877061843872
0.21268153190612793 0.2666512131690979 0.263258278369903564
0.484928131103515625 0.410125941038131714 0.551391482353210449
0.671566665172576904 0.267903029918670654 0.149140626192092896
0.419459432363510132 0.804762840270996094 0.89823615550994873
0.748532533645629883 0.386177748441696167 0.774860799312591553
0.369009584188461304 0.205672293901443481 0.178499475121498108
0.593110263347625732 0.346310853958129883 0.465685784816741943
0.199346691370010376 0.538335204124450684 0.141692832112312317
0.218589544296264648 0.537714064121246338 0.104849427938461304
0.145600989460945129 0.361919820308685303 0.450604617595672607
0.147963926196098328 0.360138148069381714 0.433947145938873291
0.31639784574508667 0.194434598088264465 0.396236658096313477
0.49717065691947937 0.830390512943267822 0.655991077423095703
0.616899788379669189 0.755121469497680664 0.144694581627845764
0.659701228141784668 0.36138385534286499 0.545547604560852051
0.254004836082458496 0.484533339738845825 0.780189037322998047
0.363492399454116821 0.510249912738800049 0.839897394180297852
0.769061505794525146 0.627306699752807617 0.888099789619445801
0.395713895559310913 0.383586585521697998 0.537724018096923828
0.280585825443267822 0.56350862979888916 0.0732124894857406616
0.746580421924591064 0.49984365701675415 0.726410925388336182
0.377380967140197754 0.321324735879898071 0.174437299370765686
0.507375657558441162 0.892395317554473877 0.392760246992111206
0.547207891941070557 0.581132769584655762 0.0648723766207695007
0.794139862060546875 0.705557465553283691 0.732158243656158447
0.444977611303329468 0.296070098876953125 0.144732877612113953
0.719630420207977295 0.684154987335205078 0.660798013210296631
0.0964605212211608887 0.551433444023132324 0.460573583841323853
0.0922329351305961609 0.557866096496582031 0.478762596845626831
0.564066767692565918 0.636209785938262939 0.987216949462890625
0.449569642543792725 0.60493922233581543 0.986237406730651855
0.446606159210205078 0.441104233264923096 0.834287106990814209
0.466790378093719482 0.922090113162994385 0.495297223329544067
0.757644355297088623 0.515326619148254395 0.226753458380699158
0.58143317699432373 0.803942263126373291 0.898192167282104492
0.468123912811279297 0.73475348949432373 0.297810375690460205
0.808362126350402832 0.744584560394287109 0.446808457374572754
0.720686912536621094 0.336676329374313354 0.217786073684692383
0.882069766521453857 0.601304113864898682 0.331665515899658203
0.884864211082458496 0.579518675804138184 0.320471346378326416
0.850415468215942383 0.369954019784927368 0.357491940259933472
0.79335552453994751 0.379406630992889404 0.706460356712341309
0.516334772109985352 0.393966972827911377 0.63163524866104126
0.261787921190261841 0.776502788066864014 0.764672696590423584
0.119907066226005554 0.455257207155227661 0.332990944385528564
0.668797433376312256 0.882348418235778809 0.623978912830352783
0.659950375556945801 0.890161275863647461 0.61523282527923584
0.753023803234100342 0.186506137251853943 0.350205689668655396
0.723009705543518066 0.341743379831314087 0.718918740749359131
0.480660349130630493 0.387448042631149292 0.627668380737304688
0.792916536331176758 0.732676565647125244 0.545814692974090576
0.243194699287414551 0.814300358295440674 0.442336231470108032
0.507372081279754639 0.926827907562255859 0.49727165699005127
0.557305693626403809 0.315691739320755005 0.0522403493523597717
0.346832841634750366 0.524630308151245117 0.747007429599761963
0.20744730532169342 0.775306403636932373 0.291475921869277954
0.508518695831298828 0.590122342109680176 0.95018470287322998
0.56724470853805542 0.201329901814460754 0.216140121221542358
0.68986976146697998 0.847279369831085205 0.514780640602111816
0.257130682468414307 0.804578661918640137 0.505500555038452148
0.242512121796607971 0.799740195274353027 0.495823830366134644
0.751688182353973389 0.815065860748291016 0.580854058265686035
0.496037304401397705 0.246449485421180725 0.213948071002960205
0.654290676116943359 0.793995141983032227 0.862377822399139404
0.630399584770202637 0.787746787071228027 0.883050143718719482
0.629074335098266602 0.787222802639007568 0.884803593158721924
0.626880884170532227 0.789040207862854004 0.884338736534118652
0.242095962166786194 0.553009390830993652 0.657578468322753906
0.471426218748092651 0.162036523222923279 0.413309723138809204
0.870011389255523682 0.598955929279327393 0.582012712955474854
0.397493183612823486 0.405677914619445801 0.761764585971832275
0.238631978631019592 0.318937569856643677 0.633171021938323975
0.536644637584686279 0.842509269714355469 0.822685658931732178
0.12691207230091095 0.667798280715942383 0.482567310333251953
0.249343216419219971 0.728323459625244141 0.781936824321746826
0.182346731424331665 0.601621091365814209 0.774360120296478271
0.446153730154037476 0.867944300174713135 0.811433017253875732
0.458182305097579956 0.87348473072052002 0.812380969524383545
0.702372848987579346 0.730228662490844727 0.884670138359069824
0.728332698345184326 0.518097579479217529 0.861137628555297852
0.249849364161491394 0.310078084468841553 0.178311541676521301
0.527324259281158447 0.907573699951171875 0.741036474704742432
0.125360548496246338 0.652504563331604004 0.532683730125427246
0.291446685791015625 0.806242644786834717 0.760921657085418701
0.275287210941314697 0.79737401008605957 0.749047935009002686
0.12363850325345993 0.614327967166900635 0.546788275241851807
0.444419562816619873 0.467209458351135254 0.939739823341369629
0.827345788478851318 0.289810359477996826 0.260552257299423218
0.322700560092926025 0.868189692497253418 0.616803944110870361
0.727593958377838135 0.810504794120788574 0.669332206249237061
0.468269079923629761 0.845507204532623291 0.392386436462402344
0.487713992595672607 0.877805829048156738 0.730373382568359375
0.307415753602981567 0.315878123044967651 0.703951239585876465
0.322119921445846558 0.314220547676086426 0.693133056163787842
0.523913323879241943 0.932205557823181152 0.467397302389144897
0.453645527362823486 0.438207417726516724 0.836439371109008789
0.249217703938484192 0.775224387645721436 0.27271077036857605
0.251577615737915039 0.775006473064422607 0.27269357442855835
0.246446073055267334 0.775189876556396484 0.244618579745292664
0.246828824281692505 0.783379793167114258 0.257616907358169556
0.524384796619415283 0.724769294261932373 0.370102524757385254
0.836771905422210693 0.391666382551193237 0.239479407668113708
0.842247843742370605 0.385910600423812866 0.254828721284866333
0.836772024631500244 0.391666382551193237 0.239479407668113708
0.292968094348907471 0.345571517944335938 0.537597477436065674
0.492615103721618652 0.55667954683303833 0.805468261241912842
0.682625293731689453 0.181116655468940735 0.231537237763404846
0.355373114347457886 0.335599333047866821 0.455663532018661499
0.461222529411315918 0.178517252206802368 0.3825187087059021
0.474607229232788086 0.251670092344284058 0.175825029611587524
0.827193975448608398 0.357302933931350708 0.555143356323242188
0.206367433071136475 0.340694576501846313 0.626551449298858643
0.302150577306747437 0.304346054792404175 0.634876608848571777
0.111659154295921326 0.494044840335845947 0.569801032543182373
0.112688183784484863 0.491140872240066528 0.571999609470367432
0.191635444760322571 0.744584560394287109 0.446792185306549072
0.818192601203918457 0.315087378025054932 0.335474580526351929
0.579680502414703369 0.677192807197570801 0.994848966598510742
0.288482755422592163 0.192434459924697876 0.26803135871887207
0.639710605144500732 0.696741163730621338 0.954118788242340088
0.462225079536437988 0.287563621997833252 0.530120253562927246
0.487352281808853149 0.86982649564743042 0.664166510105133057
0.31573784351348877 0.870283126831054688 0.429804474115371704
0.359389513731002808 0.791517674922943115 0.873350858688354492
0.261985987424850464 0.709017813205718994 0.173181682825088501
0.600670874118804932 0.296663612127304077 0.510368466377258301
0.615740478038787842 0.203415796160697937 0.38386613130569458
0.453118443489074707 0.441515326499938965 0.86394965648651123
0.13358759880065918 0.701914310455322266 0.335133194923400879
0.343367159366607666 0.51778721809387207 0.879570245742797852
0.451505929231643677 0.626241624355316162 0.041564643383026123
0.476431787014007568 0.679906666278839111 0.57880711555480957
0.515116870403289795 0.804692506790161133 0.703188419342041016
0.618584752082824707 0.90499413013458252 0.584623873233795166
0.31219443678855896 0.730524718761444092 0.89235001802444458
0.401562631130218506 0.241670101881027222 0.147640407085418701
0.401251345872879028 0.229553103446960449 0.153765588998794556
0.727714419364929199 0.589417397975921631 0.931139290332794189
0.793059825897216797 0.334812581539154053 0.608876407146453857
0.392560482025146484 0.888739585876464844 0.595419704914093018
0.391620367765426636 0.888509213924407959 0.596805155277252197
0.830030202865600586 0.722568809986114502 0.26044929027557373
0.853032827377319336 0.570267617702484131 0.577666044235229492
0.735292375087738037 0.729949891567230225 0.864288866519927979
0.721008896827697754 0.720284998416900635 0.883705615997314453
0.718106687068939209 0.714846432209014893 0.870403707027435303
0.203180760145187378 0.269767582416534424 0.388438373804092407
0.566264092922210693 0.425031721591949463 0.710647344589233398
0.462110012769699097 0.793139159679412842 0.154697254300117493
0.302051395177841187 0.783803105354309082 0.248016953468322754
0.185836508870124817 0.669208049774169922 0.711797177791595459
0.201403349637985229 0.724952399730682373 0.262461960315704346
0.574202537536621094 0.40439268946647644 0.583220362663269043
0.785330832004547119 0.675746679306030273 0.166765660047531128
0.477164119482040405 0.911373913288116455 0.690105795860290527
0.16996331512928009 0.699439704418182373 0.599775910377502441
0.75283581018447876 0.625205636024475098 0.1270647794008255
0.25761142373085022 0.200158476829528809 0.289787858724594116
0.381104409694671631 0.446655958890914917 0.738840103149414062
0.724278450012207031 0.784430325031280518 0.247030884027481079
0.722467303276062012 0.787446916103363037 0.261866986751556396
0.532687664031982422 0.271740853786468506 0.376452118158340454
0.160071760416030884 0.390088260173797607 0.331226617097854614
0.159310325980186462 0.391737908124923706 0.330656081438064575
0.858637809753417969 0.528898954391479492 0.206819787621498108
0.36202046275138855 0.255192041397094727 0.151490330696105957
0.464833617210388184 0.275817543268203735 0.151626721024513245
0.574156761169433594 0.313718616962432861 0.539165616035461426
0.570450723171234131 0.287563621997833252 0.530122876167297363
0.648817896842956543 0.466746062040328979 0.0293937660753726959
0.286242544651031494 0.330497592687606812 0.427928447723388672
0.414737969636917114 0.594409704208374023 0.0359439365565776825
0.566626369953155518 0.911755084991455078 0.709096074104309082
0.352470070123672485 0.85391157865524292 0.384572535753250122
0.122198015451431274 0.65923917293548584 0.324853599071502686
0.494186729192733765 0.346239179372787476 0.0746065676212310791
0.460936397314071655 0.195756927132606506 0.448967278003692627
0.797960102558135986 0.739436626434326172 0.45498993992805481
0.64590829610824585 0.864767134189605713 0.725789487361907959
0.639533519744873047 0.867656588554382324 0.711929738521575928
0.640032291412353516 0.867424666881561279 0.70932316780090332
0.37573733925819397 0.541275262832641602 0.953207433223724365
0.454262852668762207 0.5030098557472229 0.00682398583739995956
0.367723524570465088 0.739048957824707031 0.937590122222900391
0.104728356003761292 0.475568771362304688 0.378106355667114258
0.41213756799697876 0.322410225868225098 0.439411282539367676
0.686043143272399902 0.840096235275268555 0.293409466743469238
0.339433103799819946 0.35826912522315979 0.774129629135131836
0.350772500038146973 0.288222759962081909 0.129086270928382874
0.345910161733627319 0.292658418416976929 0.114396564662456512
0.341700583696365356 0.275054126977920532 0.151796072721481323
0.387953311204910278 0.512084424495697021 0.746927618980407715
0.581701695919036865 0.851293742656707764 0.840302765369415283
0.561311423778533936 0.572332382202148438 0.0207167770713567734
0.60438913106918335 0.841335654258728027 0.232711315155029297
0.534620881080627441 0.668245971202850342 0.656865894794464111
0.560634195804595947 0.898578166961669922 0.519096791744232178
0.605397820472717285 0.327787250280380249 0.669543802738189697
0.744746863842010498 0.725721061229705811 0.710869669914245605
0.651117801666259766 0.680596470832824707 0.691440463066101074
0.65124809741973877 0.641734302043914795 0.677001833915710449
0.276954174041748047 0.690181314945220947 0.657670915126800537
0.242138102650642395 0.72082221508026123 0.674376070499420166
0.518977165222167969 0.758986771106719971 0.584657549858093262
0.517672359943389893 0.787403702735900879 0.586809813976287842
0.601956546306610107 0.295770823955535889 0.0982700586318969727
0.60678708553314209 0.29828980565071106 0.088855154812335968
0.652222692966461182 0.784791171550750732 0.835431754589080811
0.462660342454910278 0.174086734652519226 0.312007814645767212
0.408665716648101807 0.906624197959899902 0.506559193134307861
0.407364398241043091 0.915931463241577148 0.520863234996795654
0.8371124267578125 0.354075759649276733 0.519300460815429688
0.71700894832611084 0.52591097354888916 0.54781043529510498
0.388432115316390991 0.340455353260040283 0.711494147777557373
0.101859860122203827 0.513550281524658203 0.488861560821533203
0.894875645637512207 0.489928543567657471 0.492916375398635864
0.207766205072402954 0.249325275421142578 0.297099024057388306
0.750847816467285156 0.355588525533676147 0.749252974987030029
0.314571410417556763 0.745244920253753662 0.172809392213821411
0.158045440912246704 0.729172706604003906 0.31205064058303833
0.157410904765129089 0.722032368183135986 0.314474791288375854
0.469240784645080566 0.756420612335205078 0.359653234481811523
0.408384948968887329 0.473710805177688599 0.743433356285095215
0.81931614875793457 0.589942276477813721 0.707773268222808838
0.18856889009475708 0.762762904167175293 0.295367658138275146
0.415579468011856079 0.710738301277160645 0.431753426790237427
0.709349393844604492 0.495278596878051758 0.063394986093044281
0.325523912906646729 0.369868069887161255 0.346280336380004883
0.781478703022003174 0.314974516630172729 0.390318006277084351
0.3428153395652771 0.799100577831268311 0.221263095736503601
0.182201921939849854 0.327013581991195679 0.341906756162643433
0.686008632183074951 0.805164217948913574 0.245425954461097717
0.709208369255065918 0.816749989986419678 0.274925261735916138
0.254049062728881836 0.706343591213226318 0.754026591777801514
0.358498603105545044 0.429811567068099976 0.730122089385986328
0.480593293905258179 0.389444142580032349 0.077030964195728302
0.470656365156173706 0.643103599548339844 0.510047733783721924
0.707995772361755371 0.600318074226379395 0.575355887413024902
0.860879600048065186 0.488429993391036987 0.215048655867576599
0.35289764404296875 0.183594837784767151 0.325205504894256592
0.284322798252105713 0.687563300132751465 0.925976216793060303
0.499988287687301636 0.503336250782012939 0.845052242279052734
0.788919568061828613 0.455916494131088257 0.783483743667602539
0.507114231586456299 0.237630948424339294 0.502732038497924805
0.639151871204376221 0.805340886116027832 0.21242852509021759
0.822274863719940186 0.683790206909179688 0.670383214950561523
0.606352567672729492 0.554103851318359375 0.980208992958068848
0.630448460578918457 0.571354031562805176 0.980209648609161377
0.191994920372962952 0.699330270290374756 0.697550177574157715
0.242905855178833008 0.675053715705871582 0.16537359356880188
0.224762335419654846 0.674236595630645752 0.165445238351821899
0.741529643535614014 0.798162460327148438 0.289741814136505127
0.415332704782485962 0.705370903015136719 0.583952128887176514
0.299642354249954224 0.337474942207336426 0.10271020233631134
0.325418084859848022 0.36339995265007019 0.0973222553730010986
0.469419926404953003 0.600779354572296143 0.0521845333278179169
0.854159772396087646 0.72517085075378418 0.381900221109390259
0.845866084098815918 0.287933886051177979 0.332828372716903687
0.846207618713378906 0.294411301612854004 0.340444087982177734
0.650358080863952637 0.867310404777526855 0.701056420803070068
0.160498261451721191 0.388788491487503052 0.247136160731315613
0.163236483931541443 0.391666382551193237 0.239461660385131836
0.475444555282592773 0.718633830547332764 0.355694741010665894
0.853126823902130127 0.548465311527252197 0.597660362720489502
0.191691040992736816 0.557070612907409668 0.574029147624969482
0.322860807180404663 0.844441115856170654 0.490799427032470703
0.366950184106826782 0.38953360915184021 0.789808154106140137
0.149591177701950073 0.695402681827545166 0.540696084499359131
0.169308215379714966 0.349053531885147095 0.304196923971176147
0.65142977237701416 0.357631862163543701 0.420938968658447266
0.749352395534515381 0.792126119136810303 0.68555152416229248
0.185894370079040527 0.30337977409362793 0.337847411632537842
0.484003216028213501 0.713387787342071533 0.939740955829620361
0.531111717224121094 0.362804293632507324 0.624640524387359619
0.235121339559555054 0.22088293731212616 0.398547589778900146
0.464013785123825073 0.273308038711547852 0.153554067015647888
0.478195697069168091 0.260559618473052979 0.181198775768280029
0.464314728975296021 0.265127211809158325 0.157430410385131836
0.207518696784973145 0.656249165534973145 0.827193379402160645
0.209269940853118896 0.644616127014160156 0.846368730068206787
0.120595440268516541 0.466325163841247559 0.33875274658203125
0.762176632881164551 0.529043853282928467 0.0957477465271949768
0.463331907987594604 0.828749775886535645 0.881245911121368408
0.449572265148162842 0.830444216728210449 0.886397063732147217
0.216322124004364014 0.374329656362533569 0.713351964950561523
0.880326151847839355 0.433882355690002441 0.456473797559738159
