ply
format ascii 1.0
element vertex 763
property float x
property float y
property float z
end_header
0.489893525838851929 0.54905170202255249 0.117703378200531006
0.243194699287414551 0.814300358295440674 0.442336231470108032
0.255041927099227905 0.613513350486755371 0.916520118713378906
0.719616711139678955 0.403908789157867432 0.560829401016235352
0.643001675605773926 0.414172083139419556 0.788436770439147949
0.633757591247558594 0.871926963329315186 0.589250147342681885
0.563757181167602539 0.668001294136047363 0.717086315155029297
0.635953962802886963 0.750934064388275146 0.155642420053482056
0.591754496097564697 0.636376082897186279 0.0631909295916557312
0.541343808174133301 0.730400025844573975 0.94303053617477417
0.461599498987197876 0.377564430236816406 0.356359332799911499
0.295581966638565063 0.183945000171661377 0.361566096544265747
0.436649978160858154 0.289336025714874268 0.0944961309432983398
0.172798216342926025 0.341222852468490601 0.542989373207092285
0.591345131397247314 0.366013258695602417 0.355380505323410034
0.863326549530029297 0.450913220643997192 0.242151767015457153
0.723009705543518066 0.341743379831314087 0.718918740749359131
0.712507307529449463 0.763746201992034912 0.854978322982788086
0.476431787014007568 0.679906666278839111 0.57880711555480957
0.547207891941070557 0.581132769584655762 0.0648723766207695007
0.440543085336685181 0.238427326083183289 0.398991137742996216
0.401132434606552124 0.692026317119598389 0.496448487043380737
0.76104503870010376 0.427308470010757446 0.112622365355491638
0.456480354070663452 0.882049798965454102 0.273007810115814209
0.799482583999633789 0.204041123390197754 0.317228466272354126
0.20614778995513916 0.300613433122634888 0.28406408429145813
0.524318099021911621 0.146776750683784485 0.442879915237426758
0.636678040027618408 0.35021170973777771 0.581515491008758545
0.75283581018447876 0.625205636024475098 0.1270647794008255
0.193410798907279968 0.365150481462478638 0.255549609661102295
0.417720437049865723 0.883328020572662354 0.780094385147094727
0.523644089698791504 0.41775047779083252 0.221216067671775818
0.304051846265792847 0.773806154727935791 0.212221667170524597
0.483700841665267944 0.840113222599029541 0.647167384624481201
0.541023433208465576 0.84602510929107666 0.843130052089691162
0.699447095394134521 0.843882739543914795 0.666472852230072021
0.591536581516265869 0.6719399094581604 0.427124947309494019
0.476480215787887573 0.517857372760772705 0.949877440929412842
0.3428153395652771 0.799100577831268311 0.221263095736503601
0.22304871678352356 0.692234277725219727 0.836238980293273926
0.508518695831298828 0.590122342109680176 0.95018470287322998
0.140185028314590454 0.382574141025543213 0.505806088447570801
0.869555532932281494 0.503652989864349365 0.262761831283569336
0.350035309791564941 0.886767029762268066 0.4563274085521698
0.707530021667480469 0.613939046859741211 0.55413818359375
0.428514868021011353 0.420415192842483521 0.663055419921875
0.256460338830947876 0.803182303905487061 0.502210319042205811
0.277484208345413208 0.19993959367275238 0.259795933961868286
0.507806658744812012 0.864361941814422607 0.455246120691299438
0.54623723030090332 0.260302066802978516 0.521499454975128174
0.365403324365615845 0.848926544189453125 0.26502835750579834
0.531560242176055908 0.765415787696838379 0.168663367629051208
0.42561766505241394 0.387701481580734253 0.664272487163543701
0.343189924955368042 0.669498920440673828 0.098727881908416748
0.462110012769699097 0.793139159679412842 0.154697254300117493
0.259282171726226807 0.774161219596862793 0.712713897228240967
0.513902127742767334 0.584446609020233154 0.131126418709754944
0.462225079536437988 0.287563621997833252 0.530120253562927246
0.843535780906677246 0.716543078422546387 0.317250072956085205
0.665341079235076904 0.884158551692962646 0.585602045059204102
0.438157141208648682 0.933819115161895752 0.506602942943572998
0.393890261650085449 0.599030017852783203 0.989442527294158936
0.422052532434463501 0.493033796548843384 0.922523319721221924
0.548030972480773926 0.0677178427577018738 0.376854509115219116
0.360947102308273315 0.484219461679458618 0.0342024937272071838
0.711860895156860352 0.29821661114692688 0.476117730140686035
0.706174910068511963 0.231154695153236389 0.175129130482673645
0.500678956508636475 0.284013092517852783 0.183926388621330261
0.476383507251739502 0.779550671577453613 0.147494405508041382
0.711589395999908447 0.346505105495452881 0.194728478789329529
0.786932766437530518 0.678272843360900879 0.788144469261169434
0.743236899375915527 0.66516190767288208 0.905349314212799072
0.124953202903270721 0.41513863205909729 0.446310758590698242
0.371666133403778076 0.371446847915649414 0.537518739700317383
0.646715462207794189 0.847489595413208008 0.761178016662597656
0.333179175853729248 0.362535357475280762 0.102604515850543976
0.44248884916305542 0.90453493595123291 0.753735542297363281
0.560634195804595947 0.898578166961669922 0.519096791744232178
0.448103487491607666 0.659524202346801758 0.0681438520550727844
0.512969613075256348 0.435242384672164917 0.0361911877989768982
0.798669636249542236 0.215546786785125732 0.294222712516784668
0.799329936504364014 0.295273780822753906 0.232113838195800781
0.607685267925262451 0.883761823177337646 0.765531420707702637
0.41961941123008728 0.217376098036766052 0.373952746391296387
0.179790541529655457 0.568590283393859863 0.541882216930389404
0.702918827533721924 0.810783565044403076 0.25499039888381958
0.435833394527435303 0.629750609397888184 0.983961999416351318
0.655834555625915527 0.8697967529296875 0.337988495826721191
0.58619004487991333 0.872318804264068604 0.490105718374252319
0.200253337621688843 0.250984489917755127 0.376308590173721313
0.192766934633255005 0.342847704887390137 0.583617329597473145
0.480587154626846313 0.78482818603515625 0.684073328971862793
0.258928477764129639 0.263424038887023926 0.204774901270866394
0.150549396872520447 0.7138863205909729 0.374342501163482666
0.449534118175506592 0.432819157838821411 0.750269055366516113
0.411664128303527832 0.315845638513565063 0.487566590309143066
0.199483022093772888 0.761412441730499268 0.294138312339782715
0.74062734842300415 0.552375435829162598 0.907924890518188477
0.339696407318115234 0.882872402667999268 0.657834649085998535
0.233743742108345032 0.213875517249107361 0.294193267822265625
0.482627540826797485 0.821146965026855469 0.823890745639801025
0.198508873581886292 0.65729820728302002 0.7663765549659729
0.711349129676818848 0.241766467690467834 0.181679993867874146
0.519155144691467285 0.764430820941925049 0.677651524543762207
0.306689172983169556 0.599720001220703125 0.967322885990142822
0.262319296598434448 0.277922928333282471 0.445706874132156372
0.499985694885253906 0.689257800579071045 0.944591343402862549
0.578860104084014893 0.378858983516693115 0.626695632934570312
0.633649706840515137 0.181997060775756836 0.334363460540771484
0.739997208118438721 0.323839277029037476 0.429090291261672974
0.473407208919525146 0.915573000907897949 0.619976818561553955
0.351850569248199463 0.866038799285888672 0.713415086269378662
0.566485762596130371 0.223397016525268555 0.468547552824020386
0.504617571830749512 0.374612182378768921 0.550078332424163818
0.851199686527252197 0.499629408121109009 0.671872198581695557
0.385861754417419434 0.465447068214416504 0.776184439659118652
0.828303039073944092 0.465611428022384644 0.435135036706924438
0.692842543125152588 0.412162065505981445 0.06688670814037323
0.722536802291870117 0.638446331024169922 0.767479896545410156
0.267940610647201538 0.402251750230789185 0.647890090942382812
0.499991863965988159 0.665195882320404053 0.714236259460449219
0.317725390195846558 0.848639190196990967 0.659833669662475586
0.794251203536987305 0.267458349466323853 0.226597622036933899
0.615046083927154541 0.175636231899261475 0.365366548299789429
0.703977346420288086 0.825560986995697021 0.499842226505279541
0.537813484668731689 0.299933671951293945 0.0603905506432056427
0.457056283950805664 0.328990131616592407 0.542712688446044922
0.720479607582092285 0.293564200401306152 0.47253766655921936
0.145886406302452087 0.501022994518280029 0.660790562629699707
0.433357506990432739 0.911755084991455078 0.709092497825622559
0.541512548923492432 0.6090240478515625 0.5115090012550354
0.372129350900650024 0.71170121431350708 0.948430836200714111
0.292968094348907471 0.345571517944335938 0.537597477436065674
0.752503275871276855 0.347776502370834351 0.511307835578918457
0.440432816743850708 0.342296868562698364 0.465333551168441772
0.355557709932327271 0.823695182800292969 0.799486398696899414
0.581861257553100586 0.303607285022735596 0.0754089280962944031
0.746580421924591064 0.49984365701675415 0.726410925388336182
0.855467438697814941 0.645668685436248779 0.588430643081665039
0.760528683662414551 0.312861323356628418 0.563477814197540283
0.29361608624458313 0.333028793334960938 0.575542628765106201
0.170494124293327332 0.63804858922958374 0.735062301158905029
0.854159772396087646 0.72517085075378418 0.381900221109390259
0.831271767616271973 0.233882144093513489 0.348487317562103271
0.331328362226486206 0.844832718372344971 0.660906732082366943
0.0981260091066360474 0.50586402416229248 0.391565978527069092
0.458472102880477905 0.103256359696388245 0.384602069854736328
0.778943300247192383 0.317331463098526001 0.585740029811859131
0.538203418254852295 0.414967626333236694 0.499399334192276001
0.22576528787612915 0.499879568815231323 0.746899247169494629
0.276973724365234375 0.341743379831314087 0.718907058238983154
0.330629199743270874 0.542313516139984131 0.951116502285003662
0.189251750707626343 0.277627289295196533 0.340940773487091064
0.802791893482208252 0.508036911487579346 0.749584794044494629
0.168478086590766907 0.559168159961700439 0.581313550472259521
0.709004640579223633 0.534603774547576904 0.0720296129584312439
0.280585825443267822 0.56350862979888916 0.0732124894857406616
0.718688130378723145 0.795126378536224365 0.783773481845855713
0.146958097815513611 0.570267617702484131 0.577647387981414795
0.289147257804870605 0.817407548427581787 0.744140148162841797
0.541031599044799805 0.68340831995010376 0.977923333644866943
0.208803683519363403 0.64809262752532959 0.834783554077148438
0.214516684412956238 0.413576096296310425 0.749634206295013428
0.11824481189250946 0.630552828311920166 0.446888089179992676
0.155897930264472961 0.391811221837997437 0.456715881824493408
0.413221538066864014 0.801781177520751953 0.870234668254852295
0.184300780296325684 0.476051658391952515 0.754942893981933594
0.514449656009674072 0.811899781227111816 0.395777523517608643
0.85900038480758667 0.396246790885925293 0.451967477798461914
0.311672329902648926 0.295843005180358887 0.47310328483581543
0.849200069904327393 0.384575217962265015 0.451245695352554321
0.15969105064868927 0.390913069248199463 0.330941349267959595
0.641390562057495117 0.834240496158599854 0.256545990705490112
0.83531653881072998 0.683470666408538818 0.285082399845123291
0.768308758735656738 0.3880959153175354 0.132527664303779602
0.442436844110488892 0.681579768657684326 0.983626425266265869
0.345237642526626587 0.707057654857635498 0.946201503276824951
0.666886627674102783 0.797064483165740967 0.224090158939361572
0.671602249145507812 0.765033841133117676 0.227569490671157837
0.310743659734725952 0.180243432521820068 0.328282088041305542
0.145341306924819946 0.475495904684066772 0.506234169006347656
0.40998232364654541 0.38139835000038147 0.581982970237731934
0.556846916675567627 0.88262641429901123 0.797009408473968506
0.727036476135253906 0.817216753959655762 0.49495232105255127
0.612797677516937256 0.191533118486404419 0.392646670341491699
0.707024812698364258 0.345571517944335938 0.537608444690704346
0.553259491920471191 0.778357088565826416 0.14596983790397644
0.864864468574523926 0.403015762567520142 0.374604880809783936
0.612696409225463867 0.345511883497238159 0.62080305814743042
0.368613362312316895 0.813953101634979248 0.211880892515182495
0.724084436893463135 0.666488826274871826 0.653497457504272461
0.490628927946090698 0.709082841873168945 0.199352413415908813
0.460936397314071655 0.195756927132606506 0.448967278003692627
0.58336031436920166 0.896227777004241943 0.747191190719604492
0.559406280517578125 0.257548123598098755 0.518034040927886963
0.79335552453994751 0.379406630992889404 0.706460356712341309
0.347754597663879395 0.784791171550750732 0.835423767566680908
0.51856309175491333 0.81926041841506958 0.221846640110015869
0.241890832781791687 0.233014121651649475 0.254143804311752319
0.354486078023910522 0.37521931529045105 0.788514912128448486
0.844551026821136475 0.352637112140655518 0.363918095827102661
0.41029009222984314 0.841743826866149902 0.850925981998443604
0.55154263973236084 0.82551121711730957 0.179986163973808289
0.124730683863162994 0.430693060159683228 0.533875703811645508
0.820110976696014404 0.271230518817901611 0.398574322462081909
0.118196792900562286 0.619138121604919434 0.371003717184066772
0.518527328968048096 0.753818690776824951 0.293287009000778198
0.376811206340789795 0.40918317437171936 0.783375442028045654
0.407199949026107788 0.623311400413513184 0.977986514568328857
0.248441711068153381 0.320601522922515869 0.33101952075958252
0.691044926643371582 0.299728363752365112 0.154244706034660339
0.240696966648101807 0.476179659366607666 0.0986100062727928162
0.519035637378692627 0.732339084148406982 0.703866064548492432
0.71564948558807373 0.663433492183685303 0.939747214317321777
0.466208875179290771 0.223096027970314026 0.364562124013900757
0.565624654293060303 0.934865117073059082 0.493817299604415894
0.413515776395797729 0.562117516994476318 0.017075464129447937
0.547791957855224609 0.531238019466400146 0.710400640964508057
0.305223613977432251 0.329341530799865723 0.203928038477897644
0.470656365156173706 0.643103599548339844 0.510047733783721924
0.872913777828216553 0.629635035991668701 0.349046587944030762
0.701961040496826172 0.573758065700531006 0.0685283169150352478
0.420733332633972168 0.377837866544723511 0.186341598629951477
0.64777374267578125 0.177049949765205383 0.215819895267486572
0.855638265609741211 0.508742928504943848 0.201988548040390015
0.737445831298828125 0.359091907739639282 0.195052370429039001
0.724134624004364014 0.79606550931930542 0.755252540111541748
0.677882492542266846 0.597772300243377686 0.0709888860583305359
0.75061267614364624 0.290452748537063599 0.177881568670272827
0.249856680631637573 0.579962074756622314 0.916520059108734131
0.838702261447906494 0.304055154323577881 0.339821577072143555
0.846190810203552246 0.271572619676589966 0.336011320352554321
0.530788064002990723 0.22422751784324646 0.489347696304321289
0.477178573608398438 0.297874331474304199 0.395103424787521362
0.469240784645080566 0.756420612335205078 0.359653234481811523
0.524187862873077393 0.631593704223632812 0.453806549310684204
0.480776041746139526 0.489360272884368896 0.761221110820770264
0.485265076160430908 0.484515935182571411 0.921224832534790039
0.872461915016174316 0.407147049903869629 0.442212969064712524
0.733981609344482422 0.831090152263641357 0.328329354524612427
0.801087617874145508 0.288469642400741577 0.230716243386268616
0.358980685472488403 0.557849526405334473 0.0489178299903869629
0.266356408596038818 0.833524107933044434 0.56102985143661499
0.626954436302185059 0.326023012399673462 0.629406869411468506
0.127409517765045166 0.660477638244628906 0.293566137552261353
0.850651919841766357 0.412691473960876465 0.258856087923049927
0.8590431809425354 0.541427195072174072 0.57159578800201416
0.71049809455871582 0.647979676723480225 0.94150930643081665
0.595654070377349854 0.29262128472328186 0.136152759194374084
0.284808605909347534 0.389282912015914917 0.776727437973022461
0.314571410417556763 0.745244920253753662 0.172809392213821411
0.356271654367446899 0.779404342174530029 0.820682406425476074
0.579869449138641357 0.861912548542022705 0.249438077211380005
0.477164119482040405 0.911373913288116455 0.690105795860290527
0.6278420090675354 0.71170121431350708 0.94843757152557373
0.332819163799285889 0.844419896602630615 0.764365494251251221
0.519016563892364502 0.450134545564651489 0.781383991241455078
0.627476811408996582 0.855729460716247559 0.357122838497161865
0.461414515972137451 0.411665856838226318 0.00948918983340263367
0.61234968900680542 0.180681824684143066 0.21099698543548584
0.482775688171386719 0.520539402961730957 0.843291640281677246
0.901317954063415527 0.490905344486236572 0.414973139762878418
0.426006495952606201 0.754806458950042725 0.129474148154258728
0.468123912811279297 0.73475348949432373 0.297810375690460205
0.120367899537086487 0.431775450706481934 0.334974884986877441
0.540902972221374512 0.889045059680938721 0.286396384239196777
0.741529643535614014 0.798162460327148438 0.289741814136505127
0.554472148418426514 0.545729756355285645 0.0204732194542884827
0.493968427181243896 0.507462084293365479 0.567702829837799072
0.344073981046676636 0.283937752246856689 0.134121879935264587
0.401663720607757568 0.757180571556091309 0.95010077953338623
0.330528944730758667 0.317978918552398682 0.616914153099060059
0.738017380237579346 0.567049860954284668 0.920836925506591797
0.592446565628051758 0.232363447546958923 0.394976198673248291
0.185894370079040527 0.30337977409362793 0.337847411632537842
0.165943384170532227 0.480944961309432983 0.723996222019195557
0.274233251810073853 0.196090221405029297 0.384195238351821899
0.352470070123672485 0.85391157865524292 0.384572535753250122
0.348114639520645142 0.591411292552947998 0.106695689260959625
0.135746568441390991 0.432844102382659912 0.581150650978088379
0.621259152889251709 0.462169229984283447 0.0170610770583152771
0.874967515468597412 0.437581747770309448 0.534753859043121338
0.604371845722198486 0.29703029990196228 0.0935626029968261719
0.71060258150100708 0.413343697786331177 0.503082334995269775
0.155061036348342896 0.384499222040176392 0.300123304128646851
0.723372876644134521 0.785938620567321777 0.254448920488357544
0.673103988170623779 0.383884459733963013 0.0651661306619644165
0.518294036388397217 0.511871993541717529 0.915660083293914795
0.525434672832489014 0.772763311862945557 0.531704485416412354
0.682261168956756592 0.848639190196990967 0.659843325614929199
0.291897773742675781 0.18836192786693573 0.38983115553855896
0.856843769550323486 0.405128419399261475 0.580231726169586182
0.906212449073791504 0.537457883358001709 0.376164793968200684
0.692130982875823975 0.177064433693885803 0.296733111143112183
0.343281775712966919 0.435813724994659424 0.787088751792907715
0.648549020290374756 0.173186078667640686 0.255263924598693848
0.419459432363510132 0.804762840270996094 0.89823615550994873
0.44614681601524353 0.559289097785949707 0.981085896492004395
0.488791137933731079 0.223928317427635193 0.486170947551727295
0.211060553789138794 0.455916494131088257 0.783468544483184814
0.660455822944641113 0.879446625709533691 0.456059962511062622
0.64802396297454834 0.836336433887481689 0.762676894664764404
0.52566373348236084 0.799883902072906494 0.490231037139892578
0.564029693603515625 0.861376941204071045 0.810160219669342041
0.509543180465698242 0.566186487674713135 0.535589814186096191
0.12363850325345993 0.614327967166900635 0.546788275241851807
0.276922345161437988 0.630285799503326416 0.908944666385650635
0.262117892503738403 0.781788289546966553 0.723142266273498535
0.52800440788269043 0.831337869167327881 0.825459063053131104
0.792916536331176758 0.732676565647125244 0.545814692974090576
0.445547997951507568 0.545729756355285645 0.0204702857881784439
0.557579100131988525 0.92430579662322998 0.618959248065948486
0.357680946588516235 0.578338801860809326 0.975834012031555176
0.23509766161441803 0.749856352806091309 0.70236968994140625
0.146782457828521729 0.361028999090194702 0.442275881767272949
0.231189653277397156 0.703138113021850586 0.178991526365280151
0.673370957374572754 0.173284336924552917 0.241191327571868896
0.645089030265808105 0.619545876979827881 0.980210065841674805
0.295887857675552368 0.185493528842926025 0.278437316417694092
0.382854342460632324 0.562462389469146729 0.260928481817245483
0.800511360168457031 0.73217165470123291 0.623586058616638184
0.523102521896362305 0.481364339590072632 0.0213436577469110489
0.187764093279838562 0.77607041597366333 0.368568301200866699
0.379079878330230713 0.278609126806259155 0.140867546200752258
0.499144077301025391 0.851117193698883057 0.734875321388244629
0.496528863906860352 0.653978228569030762 0.948349475860595703
0.198340862989425659 0.357773482799530029 0.226500838994979858
0.408506631851196289 0.699285924434661865 0.108478263020515442
0.58052670955657959 0.701319515705108643 0.584665060043334961
0.883943676948547363 0.469287604093551636 0.293333888053894043
0.657783627510070801 0.430407732725143433 0.797361314296722412
0.106841214001178741 0.562303245067596436 0.333913952112197876
0.264747977256774902 0.813711047172546387 0.676684796810150146
0.258020490407943726 0.361347436904907227 0.497823238372802734
0.335614621639251709 0.886254847049713135 0.619597196578979492
0.274813681840896606 0.71999657154083252 0.873314261436462402
0.517309248447418213 0.819518923759460449 0.825211942195892334
0.298624545335769653 0.570351719856262207 0.94737929105758667
0.533025979995727539 0.542720913887023926 0.963047683238983154
0.534153580665588379 0.908537745475769043 0.346847802400588989
0.526457071304321289 0.663241565227508545 0.609170258045196533
0.843967258930206299 0.391789436340332031 0.381173253059387207
0.485000044107437134 0.812842786312103271 0.395570188760757446
0.185392305254936218 0.385356247425079346 0.556949019432067871
0.677793562412261963 0.556713342666625977 0.957843422889709473
0.515975832939147949 0.7254524827003479 0.660825729370117188
0.484009444713592529 0.754665911197662354 0.707322299480438232
0.421789556741714478 0.383966207504272461 0.720000803470611572
0.835986196994781494 0.559035003185272217 0.167766675353050232
0.835358202457427979 0.486984550952911377 0.716292679309844971
0.470919281244277954 0.497705519199371338 0.636667847633361816
0.486990034580230713 0.805257201194763184 0.836575150489807129
0.858637809753417969 0.528898954391479492 0.206819787621498108
0.0932260826230049133 0.515695095062255859 0.396888077259063721
0.195902466773986816 0.332474082708358765 0.25149381160736084
0.263793498277664185 0.330125689506530762 0.132849067449569702
0.487802684307098389 0.453523635864257812 0.667230784893035889
0.772532820701599121 0.249876037240028381 0.214505121111869812
0.43446660041809082 0.18434007465839386 0.293918728828430176
0.782822132110595703 0.530855178833007812 0.848516523838043213
0.381322771310806274 0.360040038824081421 0.592254519462585449
0.315115928649902344 0.471702426671981812 0.7732430100440979
0.802360355854034424 0.390027850866317749 0.210467800498008728
0.672384083271026611 0.755319774150848389 0.895704925060272217
0.4788627028465271 0.751243054866790771 0.531703293323516846
0.579680502414703369 0.677192807197570801 0.994848966598510742
0.478356391191482544 0.739211797714233398 0.447130173444747925
0.396522372961044312 0.719609320163726807 0.110018819570541382
0.412675857543945312 0.921292960643768311 0.585876762866973877
0.471426218748092651 0.162036523222923279 0.413309723138809204
0.221276834607124329 0.34471285343170166 0.648366928100585938
0.557248711585998535 0.448231101036071777 0.864032268524169922
0.312004834413528442 0.289831846952438354 0.472903192043304443
0.156727805733680725 0.711640715599060059 0.277383208274841309
0.554541647434234619 0.430304884910583496 0.7478523850440979
0.51611483097076416 0.432908922433853149 0.836285650730133057
0.15043213963508606 0.600378513336181641 0.208666756749153137
0.902699768543243408 0.559903740882873535 0.398390114307403564
0.591650962829589844 0.173160821199417114 0.334287106990814209
0.689089953899383545 0.775717377662658691 0.213697746396064758
0.487049877643585205 0.435242384672164917 0.036190427839756012
0.854125499725341797 0.605699002742767334 0.479823946952819824
0.765286445617675781 0.211916729807853699 0.254677683115005493
0.846224009990692139 0.351057231426239014 0.479822218418121338
0.666195333003997803 0.363079816102981567 0.488546311855316162
0.352425605058670044 0.188849464058876038 0.351054966449737549
0.362630516290664673 0.901955127716064453 0.576904714107513428
0.874632596969604492 0.652504563331604004 0.532703638076782227
0.52953028678894043 0.561295807361602783 0.623520731925964355
0.203180760145187378 0.269767582416534424 0.388438373804092407
0.458058059215545654 0.191165938973426819 0.43888014554977417
0.127833440899848938 0.399395555257797241 0.488478034734725952
0.485735595226287842 0.846779346466064453 0.789133191108703613
0.48870047926902771 0.573895692825317383 0.764203071594238281
0.475181847810745239 0.403794467449188232 0.0746724680066108704
0.41213756799697876 0.322410225868225098 0.439411282539367676
0.858874082565307617 0.381224095821380615 0.522269904613494873
0.479316532611846924 0.764440000057220459 0.24701477587223053
0.39524349570274353 0.47362104058265686 0.524647355079650879
0.708803296089172363 0.622155368328094482 0.946660637855529785
0.810341835021972656 0.568744361400604248 0.812390327453613281
0.335250407457351685 0.181079283356666565 0.244026318192481995
0.519305706024169922 0.465324938297271729 0.665588498115539551
0.821886360645294189 0.705786406993865967 0.251947015523910522
0.21268153190612793 0.2666512131690979 0.263258278369903564
0.666902303695678711 0.83450007438659668 0.604048728942871094
0.46796119213104248 0.760925829410552979 0.161812499165534973
0.860879600048065186 0.488429993391036987 0.215048655867576599
0.594439804553985596 0.493110507726669312 0.838723480701446533
0.716022193431854248 0.324412792921066284 0.580265402793884277
0.325884908437728882 0.346500754356384277 0.75492703914642334
0.514227986335754395 0.716844379901885986 0.11336401104927063
0.90292668342590332 0.504350483417510986 0.338483303785324097
0.873092174530029297 0.497233211994171143 0.606816768646240234
0.476878225803375244 0.567289471626281738 0.308363378047943115
0.509058117866516113 0.774299442768096924 0.791838169097900391
0.594945073127746582 0.847377419471740723 0.246791303157806396
0.153757944703102112 0.393709838390350342 0.378999024629592896
0.490051507949829102 0.891548216342926025 0.341478019952774048
0.449202299118041992 0.607885956764221191 0.0371278710663318634
0.627644121646881104 0.327432155609130859 0.709319531917572021
0.153212100267410278 0.73380279541015625 0.354195773601531982
0.377380967140197754 0.321324735879898071 0.174437299370765686
0.293200105428695679 0.845228850841522217 0.526882767677307129
0.560707390308380127 0.439622789621353149 0.80031895637512207
0.847870290279388428 0.371942192316055298 0.501239180564880371
0.827961742877960205 0.566675722599029541 0.544781267642974854
0.503658056259155273 0.692695379257202148 0.119071774184703827
0.774465024471282959 0.240510717034339905 0.225349724292755127
0.48143690824508667 0.751242876052856445 0.584233105182647705
0.581685066223144531 0.326369553804397583 0.161740019917488098
0.43910980224609375 0.706140220165252686 0.0898471325635910034
0.413595974445343018 0.170602947473526001 0.339513927698135376
0.575982332229614258 0.648393869400024414 0.75780797004699707
0.779490888118743896 0.334178715944290161 0.509698808193206787
0.686043143272399902 0.840096235275268555 0.293409466743469238
0.206367433071136475 0.340694576501846313 0.626551449298858643
0.520045816898345947 0.857339024543762207 0.259877651929855347
0.493485301733016968 0.319394588470458984 0.198113277554512024
0.244962289929389954 0.327001810073852539 0.649519562721252441
0.610790133476257324 0.907522916793823242 0.438404202461242676
0.322211176156997681 0.672041654586791992 0.962104141712188721
0.709349393844604492 0.495278596878051758 0.063394986093044281
0.829800069332122803 0.306521862745285034 0.384942978620529175
0.543486058712005615 0.649674177169799805 0.986239910125732422
0.444536507129669189 0.184193238615989685 0.445893257856369019
0.66573721170425415 0.18909098207950592 0.210401907563209534
0.513440549373626709 0.348662048578262329 0.618681252002716064
0.137288957834243774 0.396868735551834106 0.451226472854614258
0.772151827812194824 0.462026536464691162 0.706222712993621826
0.431092411279678345 0.195782363414764404 0.252176463603973389
0.254049062728881836 0.706343591213226318 0.754026591777801514
0.23103649914264679 0.772959291934967041 0.67122960090637207
0.200555652379989624 0.258083313703536987 0.292455434799194336
0.716022491455078125 0.839239954948425293 0.616540968418121338
0.111692547798156738 0.543895065784454346 0.550312519073486328
0.51940077543258667 0.766730666160583496 0.585081338882446289
0.497296303510665894 0.564125657081604004 0.835561573505401611
0.643706440925598145 0.779404342174530029 0.820689857006072998
0.627462446689605713 0.207298636436462402 0.169632270932197571
0.828384041786193848 0.378355711698532104 0.287035852670669556
0.44204375147819519 0.763032019138336182 0.140324026346206665
0.736610710620880127 0.830755114555358887 0.443558067083358765
0.466210275888442993 0.230590984225273132 0.470181375741958618
0.815392255783081055 0.334728032350540161 0.375822246074676514
0.619400739669799805 0.300530999898910522 0.502127528190612793
0.12944522500038147 0.594758212566375732 0.265601217746734619
0.638294756412506104 0.899821221828460693 0.590527534484863281
0.404083997011184692 0.351246356964111328 0.709126710891723633
0.324564486742019653 0.451657861471176147 0.703156471252441406
0.815680742263793945 0.476051658391952515 0.754959404468536377
0.804651081562042236 0.716461122035980225 0.667611241340637207
0.416070699691772461 0.499842345714569092 0.930604279041290283
0.794188320636749268 0.411617845296859741 0.743654847145080566
0.356768548488616943 0.17648276686668396 0.233934909105300903
0.371558696031570435 0.303414106369018555 0.0795044004917144775
0.331520050764083862 0.707778394222259521 0.134859174489974976
0.184216707944869995 0.542756319046020508 0.706299722194671631
0.11974644660949707 0.476434022188186646 0.437133103609085083
0.313480466604232788 0.314111083745956421 0.464690685272216797
0.736719191074371338 0.238448292016983032 0.192053109407424927
0.649174213409423828 0.645057499408721924 0.713604390621185303
0.848814308643341064 0.429176628589630127 0.249965175986289978
0.691253602504730225 0.801934003829956055 0.829329490661621094
0.33277440071105957 0.834784805774688721 0.603965699672698975
0.603493273258209229 0.719609320163726807 0.110024094581604004
0.285858362913131714 0.639872491359710693 0.109112419188022614
0.304777234792709351 0.86161726713180542 0.573194026947021484
0.710426568984985352 0.844866573810577393 0.446381419897079468
0.145283401012420654 0.47791329026222229 0.219982519745826721
0.740701794624328613 0.774161219596862793 0.7127266526222229
0.58650439977645874 0.562117516994476318 0.0170800667256116867
0.203340351581573486 0.738195121288299561 0.256991654634475708
0.499993026256561279 0.694442987442016602 0.668586194515228271
0.793455064296722412 0.596153020858764648 0.788394570350646973
0.182346731424331665 0.601621091365814209 0.774360120296478271
0.195334970951080322 0.716461122035980225 0.667595207691192627
0.464731037616729736 0.426343530416488647 0.630859076976776123
0.630946815013885498 0.229588761925697327 0.153771489858627319
0.425369560718536377 0.624474525451660156 0.055312037467956543
0.565819323062896729 0.620683670043945312 0.977953910827636719
0.274439334869384766 0.312302619218826294 0.667619407176971436
0.327991604804992676 0.236797109246253967 0.173745051026344299
0.432430058717727661 0.510735154151916504 0.968908965587615967
0.531111717224121094 0.362804293632507324 0.624640524387359619
0.483686715364456177 0.216121450066566467 0.337614566087722778
0.351957142353057861 0.836336433887481689 0.762669146060943604
0.305939972400665283 0.256714135408401489 0.173282220959663391
0.697150170803070068 0.711951792240142822 0.152048423886299133
0.822274863719940186 0.683790206909179688 0.670383214950561523
0.763586938381195068 0.72913438081741333 0.803867816925048828
0.476066023111343384 0.497775554656982422 0.0159724801778793335
0.745306193828582764 0.787965178489685059 0.68329310417175293
0.46497836709022522 0.890500128269195557 0.30060875415802002
0.519567191600799561 0.78820723295211792 0.167218014597892761
0.247498556971549988 0.328540891408920288 0.531987369060516357
0.781736373901367188 0.716877758502960205 0.206455901265144348
0.794598758220672607 0.647746741771697998 0.847616970539093018
0.247881293296813965 0.208569198846817017 0.281922578811645508
0.309688001871109009 0.526556551456451416 0.91203773021697998
0.475429683923721313 0.777067363262176514 0.917373239994049072
0.479049652814865112 0.295314282178878784 0.104564636945724487
0.181765541434288025 0.580170929431915283 0.670597553253173828
0.242709651589393616 0.337832659482955933 0.29433363676071167
0.392769992351531982 0.548071384429931641 0.974171042442321777
0.522420406341552734 0.751527905464172363 0.239255174994468689
0.559009671211242676 0.885467648506164551 0.27907174825668335
0.218525230884552002 0.735452473163604736 0.666438937187194824
0.56524348258972168 0.248449310660362244 0.182039946317672729
0.854149460792541504 0.625832796096801758 0.621896326541900635
0.477027237415313721 0.211618989706039429 0.248629242181777954
0.412373095750808716 0.802094221115112305 0.900124788284301758
0.845834434032440186 0.290481537580490112 0.336461007595062256
0.432112127542495728 0.590052604675292969 0.740878462791442871
0.565373063087463379 0.208299547433853149 0.38027423620223999
0.773887753486633301 0.189178183674812317 0.336602956056594849
0.179397672414779663 0.540752053260803223 0.152636557817459106
0.248813554644584656 0.644861996173858643 0.896125376224517822
0.51766502857208252 0.818379402160644531 0.864031374454498291
0.802773535251617432 0.209173828363418579 0.383512526750564575
0.387953311204910278 0.512084424495697021 0.746927618980407715
0.49437403678894043 0.615241706371307373 0.922524988651275635
0.55828934907913208 0.192186415195465088 0.332882016897201538
0.533286035060882568 0.535017728805541992 0.0390908941626548767
0.455641835927963257 0.178055554628372192 0.303973168134689331
0.834099292755126953 0.749515175819396973 0.385309308767318726
0.826962709426879883 0.341222852468490601 0.523204386234283447
0.11453845351934433 0.584106981754302979 0.373482853174209595
0.577546119689941406 0.173625513911247253 0.309842467308044434
0.436434566974639893 0.49743807315826416 0.467849671840667725
0.169526368379592896 0.570178210735321045 0.388270765542984009
0.401377737522125244 0.573048532009124756 0.990540146827697754
0.28432232141494751 0.663433492183685303 0.939735710620880127
0.37573733925819397 0.541275262832641602 0.953207433223724365
0.172948718070983887 0.736240267753601074 0.452861577272415161
0.455979257822036743 0.255616515874862671 0.379054158926010132
0.579292237758636475 0.51617884635925293 0.968073248863220215
0.218940213322639465 0.801980555057525635 0.339750379323959351
0.738362669944763184 0.387259483337402344 0.327988415956497192
0.552892625331878662 0.105163529515266418 0.370726972818374634
0.285827070474624634 0.306704849004745483 0.453816920518875122
0.174163684248924255 0.37421262264251709 0.630229473114013672
0.883935928344726562 0.502124667167663574 0.289365917444229126
0.187783956527709961 0.742755413055419922 0.264759987592697144
0.88043445348739624 0.452395856380462646 0.340983718633651733
0.411710023880004883 0.300530999898910522 0.50201869010925293
0.878511786460876465 0.582012712955474854 0.444681644439697266
0.412506282329559326 0.707252979278564453 0.541798830032348633
0.198246017098426819 0.529160737991333008 0.767571568489074707
0.228597193956375122 0.459101080894470215 0.701596856117248535
0.702089607715606689 0.255444347858428955 0.162948906421661377
0.482310742139816284 0.818379402160644531 0.864030301570892334
0.135499149560928345 0.400390207767486572 0.5450592041015625
0.553822755813598633 0.559289097785949707 0.981088936328887939
0.448905676603317261 0.774538278579711914 0.937969744205474854
0.781304001808166504 0.201656356453895569 0.394266188144683838
0.37266114354133606 0.86210101842880249 0.309500992298126221
0.477520555257797241 0.314697504043579102 0.549736201763153076
0.168027624487876892 0.525851428508758545 0.702929079532623291
0.565815746784210205 0.852905035018920898 0.212535500526428223
0.593561887741088867 0.859014034271240234 0.269545525312423706
0.563568294048309326 0.507242023944854736 0.00467795552685856819
0.727593958377838135 0.810504794120788574 0.669332206249237061
0.557970106601715088 0.763032019138336182 0.140327140688896179
0.819936454296112061 0.743246197700500488 0.267369270324707031
0.25761142373085022 0.200158476829528809 0.289787858724594116
0.24414508044719696 0.334884226322174072 0.329566836357116699
0.750847816467285156 0.355588525533676147 0.749252974987030029
0.208098486065864563 0.717077851295471191 0.214243605732917786
0.624884545803070068 0.184552386403083801 0.37443464994430542
0.456483334302902222 0.649674177169799805 0.986237525939941406
0.539641439914703369 0.354117095470428467 0.620628595352172852
0.798506021499633789 0.756539344787597656 0.520831763744354248
0.217154473066329956 0.530855178833007812 0.848501741886138916
0.25202023983001709 0.546699821949005127 0.875110268592834473
0.324510455131530762 0.180041909217834473 0.336272537708282471
0.792450547218322754 0.19661422073841095 0.32734912633895874
0.487567543983459473 0.878224432468414307 0.73149871826171875
0.472999453544616699 0.811792433261871338 0.812637031078338623
0.356037110090255737 0.682067215442657471 0.959952473640441895
0.260159611701965332 0.249876037240028381 0.214491650462150574
0.719630420207977295 0.684154987335205078 0.660798013210296631
0.545116722583770752 0.710050046443939209 0.0835747495293617249
0.573628842830657959 0.191390559077262878 0.439799576997756958
0.386609643697738647 0.870476067066192627 0.341277331113815308
0.846149265766143799 0.527084767818450928 0.172868087887763977
0.714118123054504395 0.192358076572418213 0.232329204678535461
0.480596363544464111 0.780524075031280518 0.331141293048858643
0.722395777702331543 0.486320197582244873 0.817031323909759521
0.395843714475631714 0.257816940546035767 0.144296526908874512
0.768207907676696777 0.451754122972488403 0.647272109985351562
0.149619013071060181 0.646770298480987549 0.255138516426086426
0.592483997344970703 0.589184284210205078 0.287553608417510986
0.180939987301826477 0.702209830284118652 0.252764195203781128
0.864243865013122559 0.432844102382659912 0.581169962882995605
0.46919366717338562 0.449955850839614868 0.707342088222503662
0.609450638294219971 0.370589554309844971 0.588159739971160889
0.621742427349090576 0.315443634986877441 0.486394047737121582
0.808360934257507324 0.356413006782531738 0.628481030464172363
0.716648340225219727 0.803326129913330078 0.279381483793258667
0.503905594348907471 0.452907592058181763 0.880813300609588623
0.673365473747253418 0.247139006853103638 0.158926278352737427
0.32352486252784729 0.305834501981735229 0.667309343814849854
0.417062193155288696 0.433796584606170654 0.702887177467346191
0.305712461471557617 0.863661050796508789 0.386500120162963867
0.103917546570301056 0.50552135705947876 0.311358362436294556
0.121580444276332855 0.448222517967224121 0.345419764518737793
0.473100453615188599 0.204940676689147949 0.289885073900222778
0.532612621784210205 0.432529538869857788 0.79645073413848877
0.597085058689117432 0.267886638641357422 0.137400180101394653
0.44618949294090271 0.357263773679733276 0.170450523495674133
0.624404370784759521 0.319802254438400269 0.0528759658336639404
0.465968191623687744 0.223981574177742004 0.467397153377532959
0.26594918966293335 0.797720491886138916 0.62236475944519043
0.654732167720794678 0.882798671722412109 0.400871872901916504
0.392064988613128662 0.187306225299835205 0.302288472652435303
0.808203458786010742 0.364689499139785767 0.586403906345367432
0.578796625137329102 0.6021537184715271 0.0431183427572250366
0.557089626789093018 0.605482935905456543 0.628364920616149902
0.381104409694671631 0.446655958890914917 0.738840103149414062
0.671278834342956543 0.8292083740234375 0.783078014850616455
0.257300406694412231 0.82607656717300415 0.539343714714050293
0.615255951881408691 0.297335207462310791 0.494008123874664307
0.228376910090446472 0.296493113040924072 0.239724814891815186
0.715049445629119873 0.460609346628189087 0.776954710483551025
0.264802604913711548 0.42354816198348999 0.790743589401245117
0.408015072345733643 0.911277830600738525 0.513711214065551758
0.908661484718322754 0.551227569580078125 0.456807911396026611
0.460170924663543701 0.646909177303314209 0.538721203804016113
0.157335236668586731 0.719970881938934326 0.504956305027008057
0.371414810419082642 0.522542953491210938 0.874943077564239502
0.507375657558441162 0.892395317554473877 0.392760246992111206
0.178495094180107117 0.576714813709259033 0.155919209122657776
0.802380502223968506 0.470068663358688354 0.153956055641174316
0.542735159397125244 0.443050026893615723 0.874918162822723389
0.625709652900695801 0.33227086067199707 0.48795589804649353
0.116080425679683685 0.669461309909820557 0.330952197313308716
0.198583409190177917 0.562034189701080322 0.827857315540313721
0.297183007001876831 0.847256660461425781 0.611842453479766846
0.790375053882598877 0.756070613861083984 0.257199615240097046
0.0970768183469772339 0.504350483417510986 0.338462024927139282
0.698330342769622803 0.273317307233810425 0.154494285583496094
0.471992790699005127 0.191923096776008606 0.33448299765586853
0.781723439693450928 0.764249145984649658 0.253230690956115723
0.5503997802734375 0.60493922233581543 0.986240088939666748
0.757369160652160645 0.747778654098510742 0.743803322315216064
0.515488982200622559 0.895780563354492188 0.328495025634765625
0.697080731391906738 0.22133791446685791 0.176514402031898499
0.484890460968017578 0.713353633880615234 0.711626410484313965
0.879976630210876465 0.662084817886352539 0.413359552621841431
0.715313374996185303 0.30822262167930603 0.66385352611541748
0.460470795631408691 0.869497537612915039 0.25848349928855896
0.721333146095275879 0.738923966884613037 0.179170280694961548
0.518028080463409424 0.728509306907653809 0.808440208435058594
0.291012793779373169 0.534603774547576904 0.072018548846244812
0.743638455867767334 0.429436624050140381 0.100701689720153809
0.512518882751464844 0.883787393569946289 0.671196103096008301
0.309808284044265747 0.40717923641204834 0.497362345457077026
0.416757255792617798 0.633871555328369141 0.456938385963439941
0.618661403656005859 0.169233128428459167 0.330795794725418091
0.674597978591918945 0.36339995265007019 0.0973314270377159119
0.615740478038787842 0.203415796160697937 0.38386613130569458
0.731537818908691406 0.773849427700042725 0.790318191051483154
0.254807382822036743 0.224412456154823303 0.247563153505325317
0.697091162204742432 0.319576144218444824 0.707056701183319092
0.333964824676513672 0.716426491737365723 0.169265806674957275
0.635617494583129883 0.902834653854370117 0.531796097755432129
0.786031126976013184 0.786807417869567871 0.429311871528625488
0.38140571117401123 0.90499413013458252 0.58461761474609375
0.863388478755950928 0.67586970329284668 0.524560809135437012
0.605397820472717285 0.327787250280380249 0.669543802738189697
0.417055219411849976 0.296591907739639282 0.135958507657051086
0.136260494589805603 0.40258362889289856 0.328293919563293457
0.659089803695678711 0.190452069044113159 0.341772317886352539
0.803656160831451416 0.695423781871795654 0.704547107219696045
0.558977901935577393 0.443927019834518433 0.832175612449645996
0.452322036027908325 0.921557188034057617 0.619490563869476318
0.415612250566482544 0.252117305994033813 0.424699276685714722
0.82414543628692627 0.680459558963775635 0.215338513255119324
0.553856313228607178 0.585960686206817627 0.991391360759735107
0.881876111030578613 0.485720843076705933 0.489306986331939697
0.765604496002197266 0.59456866979598999 0.900164544582366943
0.454369038343429565 0.219283536076545715 0.17387448251247406
0.859193682670593262 0.582962870597839355 0.264702469110488892
0.408735215663909912 0.463722705841064453 0.0130699165165424347
0.518195629119873047 0.513999283313751221 0.892981469631195068
0.820210933685302734 0.460131824016571045 0.707084417343139648
0.324744552373886108 0.309362500905990601 0.152418926358222961
0.673740863800048828 0.718382954597473145 0.505220770835876465
0.821142435073852539 0.287773996591567993 0.404830485582351685
0.338390588760375977 0.283137083053588867 0.467164516448974609
0.626205861568450928 0.456071943044662476 0.414944171905517578
0.388328969478607178 0.541493415832519531 0.0366517044603824615
0.297081112861633301 0.8239937424659729 0.277580350637435913
0.823101043701171875 0.642852127552032471 0.690745294094085693
0.444521725177764893 0.851380884647369385 0.210664138197898865
0.180830702185630798 0.685623526573181152 0.62386929988861084
0.811769664287567139 0.727105796337127686 0.562029123306274414
0.648817896842956543 0.466746062040328979 0.0293937660753726959
0.489665091037750244 0.0687587112188339233 0.373996645212173462
0.515560150146484375 0.876553177833557129 0.708235740661621094
0.688147902488708496 0.320002198219299316 0.631412148475646973
0.485737442970275879 0.901037514209747314 0.720234394073486328
0.573112249374389648 0.121343187987804413 0.391745656728744507
0.769061505794525146 0.627306699752807617 0.888099789619445801
0.492622405290603638 0.894311904907226562 0.51518559455871582
0.173402145504951477 0.444016993045806885 0.661810755729675293
0.389589220285415649 0.78886103630065918 0.904822885990142822
0.288034230470657349 0.793655335903167725 0.815014898777008057
0.590624988079071045 0.226002722978591919 0.15400870144367218
0.191787034273147583 0.364689499139785767 0.586387693881988525
0.506755828857421875 0.351978987455368042 0.127278909087181091
0.447389006614685059 0.438558310270309448 0.800316154956817627
0.322860807180404663 0.844441115856170654 0.490799427032470703
0.0902349725365638733 0.532163500785827637 0.434113919734954834
0.132661253213882446 0.471196979284286499 0.400937110185623169
0.766716420650482178 0.71137923002243042 0.833629310131072998
0.308724045753479004 0.801934003829956055 0.829319536685943604
0.179776310920715332 0.331516057252883911 0.464210063219070435
0.300169616937637329 0.727604448795318604 0.901590406894683838
0.484928131103515625 0.410125941038131714 0.551391482353210449
0.340369641780853271 0.879264295101165771 0.383650481700897217
0.43562018871307373 0.579421699047088623 0.394642233848571777
0.477862805128097534 0.834744453430175781 0.823861420154571533
0.602369129657745361 0.461144506931304932 0.704429209232330322
0.499143540859222412 0.817532002925872803 0.754701018333435059
0.231681168079376221 0.283748328685760498 0.231150120496749878
0.434689790010452271 0.716859400272369385 0.673264503479003906
0.163125783205032349 0.545351028442382812 0.175749659538269043
0.392295688390731812 0.883761823177337646 0.765525698661804199
0.255718201398849487 0.694174528121948242 0.184943839907646179
0.736473023891448975 0.576942503452301025 0.651218652725219727
0.502249598503112793 0.399839341640472412 0.13388843834400177
0.809350430965423584 0.598266720771789551 0.468307524919509888
0.520515382289886475 0.34348762035369873 0.141341865062713623
0.474494636058807373 0.549548447132110596 0.896745681762695312
0.13190208375453949 0.633928418159484863 0.352286875247955322
0.765969216823577881 0.517647504806518555 0.647521615028381348
0.621821224689483643 0.368151485919952393 0.579598367214202881
0.472300708293914795 0.795250177383422852 0.533829152584075928
0.373775571584701538 0.362947851419448853 0.764242291450500488
0.744931042194366455 0.613513350486755371 0.916533052921295166
0.171351492404937744 0.642432749271392822 0.686339795589447021
