ply
format ascii 1.0
element vertex 760
property float x
property float y
property float z
end_header
0.278212130069732666 0.322827965021133423 0.593385398387908936
0.637172043323516846 0.193591758608818054 0.186376586556434631
0.760482072830200195 0.0187842696905136108 0.70221710205078125
0.385007470846176147 0.900165081024169922 0.475719422101974487
0.510890603065490723 0.0387770161032676697 0.815930068492889404
0.705940008163452148 0.367443561553955078 0.86683344841003418
0.364594817161560059 0.44477120041847229 0.6365814208984375
0.814676761627197266 0.0852679088711738586 0.58079683780670166
0.568612515926361084 0.0192996878176927567 0.765296816825866699
0.550352275371551514 0.78868710994720459 0.344371169805526733
0.451608657836914062 0.582648515701293945 0.353831112384796143
0.556692600250244141 0.0157243330031633377 0.354401290416717529
0.321510404348373413 0.0922738388180732727 0.584818899631500244
0.752827227115631104 0.0462886206805706024 0.559442341327667236
0.314874202013015747 0.844808697700500488 0.113896094262599945
0.293235987424850464 0.749853909015655518 0.154589667916297913
0.290734350681304932 0.767765343189239502 0.192760705947875977
0.297266840934753418 0.789602339267730713 0.207558810710906982
0.296246916055679321 0.78509366512298584 0.134728208184242249
0.306975960731506348 0.809997439384460449 0.21206076443195343
0.300486832857131958 0.799746930599212646 0.210071668028831482
0.310187608003616333 0.820138871669769287 0.212500706315040588
0.310191452503204346 0.830206394195556641 0.210501670837402344
0.313396036624908447 0.840273857116699219 0.206363871693611145
0.31700587272644043 0.852347791194915771 0.198052972555160522
0.289517849683761597 0.156155213713645935 0.575010240077972412
0.585562229156494141 0.0168629325926303864 0.779152035713195801
0.836499273777008057 0.180272787809371948 0.701835274696350098
0.422198444604873657 0.137975305318832397 0.390652507543563843
0.368460625410079956 0.847242414951324463 0.135812029242515564
0.291518568992614746 0.249560326337814331 0.628996908664703369
0.464730232954025269 0.133995682001113892 0.868458390235900879
0.68603748083114624 0.624090194702148438 0.632157027721405029
0.31353992223739624 0.00988890230655670166 0.374701827764511108
0.722352445125579834 0.590474545955657959 0.585826456546783447
0.341126471757888794 0.240251779556274414 0.755200624465942383
0.836317181587219238 0.387176513671875 0.469190537929534912
0.599350333213806152 0.248730197548866272 0.980208337306976318
0.560828566551208496 0.0383784882724285126 0.531062901020050049
0.199020862579345703 0.925817131996154785 0.130043208599090576
0.419888705015182495 0.943832695484161377 0.418419510126113892
0.518858253955841064 0.844776153564453125 0.357679218053817749
0.559881746768951416 0.633711874485015869 0.347890794277191162
0.730356991291046143 0.753699779510498047 0.220384076237678528
0.723896145820617676 0.576103866100311279 0.703061044216156006
0.728385567665100098 0.670722305774688721 0.229485079646110535
0.412850767374038696 0.0403136312961578369 0.472212076187133789
0.551620662212371826 0.78770899772644043 0.171362236142158508
0.847929954528808594 0.412250816822052002 0.630534648895263672
0.745730996131896973 0.0150790521875023842 0.705180168151855469
0.423021912574768066 0.551650643348693848 0.462686002254486084
0.470710337162017822 0.765112817287445068 0.113344646990299225
0.461753636598587036 0.0171336457133293152 0.701966583728790283
0.829411029815673828 0.0172235611826181412 0.406027317047119141
0.821650147438049316 0.189789891242980957 0.734399020671844482
0.664521217346191406 0.0381774604320526123 0.522820770740509033
0.321533530950546265 0.0628442838788032532 0.411910146474838257
0.843142211437225342 0.089025251567363739 0.46366417407989502
0.771463513374328613 0.25947880744934082 0.812565267086029053
0.328051567077636719 0.0544749349355697632 0.472497552633285522
0.503400266170501709 0.530537724494934082 0.818942129611968994
0.713733255863189697 0.135162994265556335 0.874455869197845459
0.537127912044525146 0.750812768936157227 0.339527875185012817
0.457608699798583984 0.0589418783783912659 0.232196077704429626
0.418766677379608154 0.0400715097784996033 0.407459557056427002
0.421887844800949097 0.201484307646751404 0.346919834613800049
0.472067207098007202 0.00747333373874425888 0.180231451988220215
0.71975255012512207 0.587507247924804688 0.683593332767486572
0.740673661231994629 0.491989642381668091 0.121930181980133057
0.620283365249633789 0.141861185431480408 0.978849530220031738
0.49042201042175293 0.0405968837440013885 0.539418697357177734
0.360830605030059814 0.3925914466381073 0.703121840953826904
0.672115445137023926 0.0660479068756103516 0.875089108943939209
0.815010726451873779 0.0154406493529677391 0.414262145757675171
0.493127703666687012 0.797227323055267334 0.406543731689453125
0.621267020702362061 0.506572246551513672 0.0411739833652973175
0.46825861930847168 0.88604581356048584 0.424727767705917358
0.365824908018112183 0.436401635408401489 0.704700171947479248
0.399000614881515503 0.12430679053068161 0.79388725757598877
0.347518295049667358 0.0305818989872932434 0.366699546575546265
0.414576888084411621 0.00851187575608491898 0.358481407165527344
0.374300718307495117 0.339193731546401978 0.234593123197555542
0.567814826965332031 0.0157428253442049026 0.284426689147949219
0.516663610935211182 0.765016496181488037 0.372133076190948486
0.359862625598907471 0.120306447148323059 0.40349423885345459
0.222097963094711304 0.790641963481903076 0.17747141420841217
0.614935696125030518 0.791674315929412842 0.125553146004676819
0.487128496170043945 0.806924223899841309 0.452319711446762085
0.773207247257232666 0.462361991405487061 0.296721875667572021
0.159790366888046265 0.939330399036407471 0.137923166155815125
0.62099987268447876 0.596678853034973145 0.474496811628341675
0.853715837001800537 0.412573248147964478 0.585668444633483887
0.789712846279144287 0.0543053820729255676 0.72109067440032959
0.719616055488586426 0.0205395817756652832 0.708425223827362061
0.720797836780548096 0.559873819351196289 0.470039606094360352
0.475141674280166626 0.5063057541847229 0.117124378681182861
0.822494328022003174 0.0961637049913406372 0.582497596740722656
0.363666117191314697 0.468508452177047729 0.530749142169952393
0.801034688949584961 0.556071639060974121 0.0529116876423358917
0.546498477458953857 0.127830579876899719 0.968841791152954102
0.391352534294128418 0.197744637727737427 0.804935455322265625
0.748109817504882812 0.357622683048248291 0.116767615079879761
0.877369523048400879 0.3136330246925354 0.541631698608398438
0.76654428243637085 0.516018688678741455 0.530748844146728516
0.490877836942672729 0.0639624595642089844 0.189403906464576721
0.324296355247497559 0.254154056310653687 0.698590755462646484
0.496723949909210205 0.378332853317260742 0.0592925995588302612
0.83847421407699585 0.0837053582072257996 0.467070430517196655
0.687173366546630859 0.591865599155426025 0.47372591495513916
0.355437725782394409 0.423562735319137573 0.646228790283203125
0.446327388286590576 0.844876229763031006 0.361081719398498535
0.492960482835769653 0.594118177890777588 0.397578030824661255
0.775550305843353271 0.224746420979499817 0.803897261619567871
0.530725181102752686 0.129874423146247864 0.24080444872379303
0.742786109447479248 0.0145453298464417458 0.35162043571472168
0.447979152202606201 0.929327130317687988 0.417777866125106812
0.790478765964508057 0.0441774912178516388 0.70226752758026123
0.313490450382232666 0.35061877965927124 0.415432333946228027
0.555294275283813477 0.212684363126754761 0.982358872890472412
0.548257350921630859 0.339997351169586182 0.0551898255944252014
0.439213156700134277 0.800209403038024902 0.113922379910945892
0.601046860218048096 0.104529537260532379 0.961893141269683838
0.488046526908874512 0.582631289958953857 0.465175867080688477
0.633565068244934082 0.644096732139587402 0.018964400514960289
0.566478252410888672 0.0134399738162755966 0.757808685302734375
0.412750244140625 0.274533510208129883 0.17979016900062561
0.774147987365722656 0.435104250907897949 0.22908899188041687
0.780519783496856689 0.0152636915445327759 0.643936276435852051
0.843999624252319336 0.33687785267829895 0.710021615028381348
0.803121745586395264 0.440219879150390625 0.58720773458480835
0.450182974338531494 0.252176254987716675 0.855334281921386719
0.868206143379211426 0.242268368601799011 0.559472501277923584
0.767441391944885254 0.575904786586761475 0.236688718199729919
0.681070208549499512 0.325534820556640625 0.0681687071919441223
0.747051060199737549 0.0162762254476547241 0.654077351093292236
0.765287518501281738 0.0167617853730916977 0.604475617408752441
0.267151027917861938 0.232892900705337524 0.473080962896347046
0.628063440322875977 0.0158401224762201309 0.642589986324310303
0.647381484508514404 0.466089695692062378 0.860593199729919434
0.295964330434799194 0.153542369604110718 0.529945433139801025
0.779501438140869141 0.512542128562927246 0.588888764381408691
0.438245236873626709 0.0361690931022167206 0.581202030181884766
0.764858841896057129 0.163714870810508728 0.406104713678359985
0.277200251817703247 0.274957716464996338 0.57361835241317749
0.640938162803649902 0.604769349098205566 0.358208954334259033
0.711249589920043945 0.119139388203620911 0.873149394989013672
0.555847287178039551 0.620484352111816406 0.701076388359069824
0.317952901124954224 0.143250063061714172 0.671082079410552979
0.465659826993942261 0.80514836311340332 0.130250677466392517
0.689414501190185547 0.0698751583695411682 0.861970245838165283
0.383835732936859131 0.922534525394439697 0.476308822631835938
0.809399843215942383 0.0385854244232177734 0.582182347774505615
0.780228793621063232 0.308570325374603271 0.357092201709747314
0.732579648494720459 0.481665223836898804 0.818938255310058594
0.276955217123031616 0.185972243547439575 0.465152114629745483
0.472995400428771973 0.0384581387042999268 0.19451904296875
0.799326896667480469 0.646941483020782471 0.180608600378036499
0.6170540452003479 0.123451605439186096 0.972002029418945312
0.511911690235137939 0.578390359878540039 0.767150700092315674
0.435979127883911133 0.57947927713394165 0.289538204669952393
0.676966428756713867 0.187703788280487061 0.970052421092987061
0.407660633325576782 0.0250697974115610123 0.587516605854034424
0.358726769685745239 0.219345599412918091 0.407831758260726929
0.83900827169418335 0.11593262106180191 0.598161995410919189
0.683037817478179932 0.142084687948226929 0.286922842264175415
0.446266978979110718 0.88444983959197998 0.360551565885543823
0.785464584827423096 0.0366899669170379639 0.239426106214523315
0.608974575996398926 0.629680275917053223 0.522087991237640381
0.503908812999725342 0.826323866844177246 0.409813791513442993
0.392013102769851685 0.120676711201667786 0.398707091808319092
0.725782096385955811 0.0442407503724098206 0.587539851665496826
0.727512717247009277 0.0768813490867614746 0.819397330284118652
0.808972775936126709 0.211997136473655701 0.453960835933685303
0.802155077457427979 0.165789082646369934 0.469331502914428711
0.750611424446105957 0.179748699069023132 0.431591689586639404
0.755527973175048828 0.19825427234172821 0.418680906295776367
0.762785255908966064 0.225840538740158081 0.418447762727737427
0.80702507495880127 0.229170024394989014 0.457755982875823975
0.764328658580780029 0.235039681196212769 0.42171594500541687
0.801960527896881104 0.237863734364509583 0.451374441385269165
0.790588557720184326 0.246116518974304199 0.43745914101600647
0.787567317485809326 0.255031466484069824 0.436583071947097778
0.790629684925079346 0.264600574970245361 0.435600072145462036
0.784028828144073486 0.729621231555938721 0.12343849241733551
0.350776493549346924 0.0249451901763677597 0.585161089897155762
0.774178743362426758 0.11272130161523819 0.41253313422203064
0.586111009120941162 0.0371877290308475494 0.469026446342468262
0.418970584869384766 0.839104890823364258 0.52181774377822876
0.289571940898895264 0.356908023357391357 0.582499504089355469
0.342235028743743896 0.925284028053283691 0.525053143501281738
0.352671056985855103 0.408241510391235352 0.466671735048294067
0.592011511325836182 0.0302426014095544815 0.581685185432434082
0.526068270206451416 0.502742290496826172 0.0742729604244232178
0.453266054391860962 0.850171208381652832 0.472282379865646362
0.871594250202178955 0.261212468147277832 0.587067186832427979
0.733694016933441162 0.772145628929138184 0.17120535671710968
0.455150127410888672 0.71443486213684082 0.175631821155548096
0.329033911228179932 0.857287406921386719 0.148361891508102417
0.789609432220458984 0.395227611064910889 0.226071774959564209
0.759115040302276611 0.127104490995407104 0.413642019033432007
0.8249053955078125 0.419813185930252075 0.640067517757415771
0.523046255111694336 0.0982802584767341614 0.916587293148040771
0.597369551658630371 0.616470217704772949 0.714416265487670898
0.86740797758102417 0.371340423822402954 0.580242693424224854
0.747331857681274414 0.0386833101511001587 0.761205017566680908
0.719054102897644043 0.0614803805947303772 0.822143971920013428
0.795542359352111816 0.376474767923355103 0.789450109004974365
0.571817517280578613 0.0636740922927856445 0.188833892345428467
0.555162310600280762 0.0198003314435482025 0.760220646858215332
0.419250935316085815 0.245006799697875977 0.24426482617855072
0.395088642835617065 0.0116377901285886765 0.647001564502716064
0.585831105709075928 0.2232789546251297 0.975731849670410156
0.340009063482284546 0.973350167274475098 0.518208503723144531
0.384580671787261963 0.0115485098212957382 0.533198416233062744
0.15060831606388092 0.951376974582672119 0.144870355725288391
0.382828742265701294 0.469561725854873657 0.701098799705505371
0.788366377353668213 0.124510392546653748 0.457377046346664429
0.689758121967315674 0.197234675288200378 0.931864023208618164
0.383866399526596069 0.978963911533355713 0.488982588052749634
0.799819827079772949 0.0160411503165960312 0.601036548614501953
0.297181427478790283 0.190137341618537903 0.606888830661773682
0.484891831874847412 0.411599308252334595 0.0781527161598205566
0.820083320140838623 0.290136396884918213 0.760059177875518799
0.562583208084106445 0.752267539501190186 0.0495340228080749512
0.838335871696472168 0.600506722927093506 0.124944686889648438
0.424502730369567871 0.901892781257629395 0.468005895614624023
0.402737975120544434 0.519128561019897461 0.297632604837417603
0.457101523876190186 0.0105061158537864685 0.196268126368522644
0.778885245323181152 0.199013754725456238 0.802380859851837158
0.732181668281555176 0.0418258421123027802 0.467866510152816772
0.439262658357620239 0.115192092955112457 0.353342771530151367
0.771427452564239502 0.525843441486358643 0.589411437511444092
0.524012625217437744 0.174069151282310486 0.970129668712615967
0.512168228626251221 0.879481911659240723 0.356271743774414062
0.765575587749481201 0.422985225915908813 0.418789058923721313
0.373490571975708008 0.448714733123779297 0.409211397171020508
0.796953439712524414 0.0619987398386001587 0.69493478536605835
0.681183576583862305 0.091438882052898407 0.248465299606323242
0.674623429775238037 0.107991985976696014 0.263271749019622803
0.668389320373535156 0.0825961753726005554 0.246163740754127502
0.710142016410827637 0.0152428271248936653 0.227128311991691589
0.690902650356292725 0.0765743032097816467 0.218671262264251709
0.694079935550689697 0.0582835599780082703 0.20396307110786438
0.703705549240112305 0.0855278000235557556 0.218786865472793579
0.702886641025543213 0.013795158825814724 0.293308228254318237
0.708390235900878906 0.0130058201029896736 0.262654215097427368
0.697491347789764404 0.034457135945558548 0.182120949029922485
0.719346761703491211 0.0186274275183677673 0.187418997287750244
0.871041595935821533 0.276969283819198608 0.525968313217163086
0.295135170221328735 0.382974445819854736 0.641327202320098877
0.398884713649749756 0.0145128862932324409 0.585187673568725586
0.738194644451141357 0.54000401496887207 0.457288295030593872
0.587795436382293701 0.0222415849566459656 0.81476891040802002
0.638922274112701416 0.0162566341459751129 0.703680753707885742
0.7489471435546875 0.559875428676605225 0.525066196918487549
0.426593929529190063 0.551221966743469238 0.653335213661193848
0.724864721298217773 0.575610756874084473 0.637058854103088379
0.435739785432815552 0.00888117775321006775 0.293591141700744629
0.591500163078308105 0.00665271654725074768 0.256296783685684204
0.803845882415771484 0.0277088619768619537 0.644159495830535889
0.749453723430633545 0.532356023788452148 0.703496456146240234
0.628473222255706787 0.358061015605926514 0.0507446900010108948
0.717659056186676025 0.729181289672851562 0.229838654398918152
0.469605505466461182 0.789576709270477295 0.117494948208332062
0.307101190090179443 0.404951542615890503 0.526623189449310303
0.510428428649902344 0.0381797738373279572 0.576358497142791748
0.848825633525848389 0.254723519086837769 0.702025353908538818
0.449318915605545044 0.0186644941568374634 0.700987160205841064
0.722668111324310303 0.211418464779853821 0.236717954277992249
0.575290560722351074 0.712726473808288574 0.0498477667570114136
0.522181034088134766 0.422129213809967041 0.064914017915725708
0.396674990653991699 0.500454723834991455 0.349668264389038086
0.505639135837554932 0.863270103931427002 0.34461289644241333
0.656069755554199219 0.23793308436870575 0.966123700141906738
0.460428833961486816 0.669984698295593262 0.109652556478977203
0.424818605184555054 0.319420129060745239 0.849461734294891357
0.407997161149978638 0.532153666019439697 0.376692503690719604
0.596096813678741455 0.599784195423126221 0.748054563999176025
0.788352429866790771 0.32750430703163147 0.184015646576881409
0.57160341739654541 0.276825129985809326 0.934667825698852539
0.612167418003082275 0.773571372032165527 0.0605922229588031769
0.334537893533706665 0.0444978922605514526 0.324537217617034912
0.320155233144760132 0.151677548885345459 0.465812206268310547
0.818105757236480713 0.168188899755477905 0.739846408367156982
0.762541055679321289 0.388417094945907593 0.127666831016540527
0.459202706813812256 0.776063680648803711 0.114176973700523376
0.354652553796768188 0.443312585353851318 0.595693767070770264
0.32622721791267395 0.0708189681172370911 0.411696285009384155
0.823045134544372559 0.0869308188557624817 0.530962347984313965
0.484536409378051758 0.845058739185333252 0.41203346848487854
0.390994489192962646 0.532094240188598633 0.585741400718688965
0.179951250553131104 0.833120644092559814 0.174891754984855652
0.813277244567871094 0.127442777156829834 0.6932220458984375
0.428721755743026733 0.814213693141937256 0.345041990280151367
0.373880684375762939 0.0626891776919364929 0.72827380895614624
0.484961360692977905 0.604080915451049805 0.530487596988677979
0.462929695844650269 0.595634162425994873 0.524457752704620361
0.494521796703338623 0.607269763946533203 0.528862953186035156
0.504357576370239258 0.610282063484191895 0.527091383934020996
0.513600409030914307 0.613743841648101807 0.529017210006713867
0.528751671314239502 0.61846768856048584 0.534907221794128418
0.494253575801849365 0.625741362571716309 0.288668185472488403
0.289888769388198853 0.396989643573760986 0.530088484287261963
0.745588243007659912 0.542384982109069824 0.701508641242980957
0.714881956577301025 0.551803767681121826 0.760339796543121338
0.447921574115753174 0.795845210552215576 0.114462181925773621
0.462543308734893799 0.634643077850341797 0.185513168573379517
0.684287011623382568 0.36235201358795166 0.0607219524681568146
0.41377529501914978 0.978286921977996826 0.469323813915252686
0.318176686763763428 0.117944784462451935 0.642612099647521973
0.790928363800048828 0.0154111003503203392 0.58325880765914917
0.506489872932434082 0.724595546722412109 0.304684996604919434
0.579989612102508545 0.0188786815851926804 0.760638773441314697
0.174093127250671387 0.933166563510894775 0.144466131925582886
0.806459605693817139 0.447178810834884644 0.716121435165405273
0.490492343902587891 0.746779382228851318 0.296824634075164795
0.570235252380371094 0.0084637124091386795 0.183274954557418823
0.863425314426422119 0.39980730414390564 0.585657656192779541
0.8136330246925354 0.0204226896166801453 0.522248744964599609
0.765473902225494385 0.747456967830657959 0.176894783973693848
0.537577390670776367 0.0396633408963680267 0.527929186820983887
0.646738231182098389 0.555252730846405029 0.00820394605398178101
0.790642440319061279 0.152419909834861755 0.454695761203765869
0.494134455919265747 0.0108102299273014069 0.179608374834060669
0.364685386419296265 0.190624818205833435 0.779246509075164795
0.112695321440696716 0.926439464092254639 0.179293066263198853
0.786282479763031006 0.37252885103225708 0.360044926404953003
0.682690978050231934 0.766753733158111572 0.235496997833251953
0.475444555282592773 0.82730334997177124 0.483616471290588379
0.497657030820846558 0.89665830135345459 0.357402414083480835
0.387416422367095947 0.28311079740524292 0.301047742366790771
0.640667259693145752 0.0550683885812759399 0.874847650527954102
0.780917644500732422 0.0739817991852760315 0.296452075242996216
0.697867989540100098 0.086979307234287262 0.876253187656402588
0.799209654331207275 0.503764629364013672 0.113998599350452423
0.428399980068206787 0.107078172266483307 0.811914145946502686
0.66121906042098999 0.108131006360054016 0.925979495048522949
0.603686153888702393 0.76388704776763916 0.279893875122070312
0.453563958406448364 0.306789994239807129 0.860998094081878662
0.796715497970581055 0.459670871496200562 0.706033110618591309
0.32706153392791748 0.0296308435499668121 0.466919809579849243
0.452377140522003174 0.0447494350373744965 0.756255984306335449
0.491779685020446777 0.76381218433380127 0.30148547887802124
0.717336297035217285 0.121081016957759857 0.300687313079833984
0.822116732597351074 0.425835102796554565 0.526577353477478027
0.476237028837203979 0.835726618766784668 0.292025297880172729
0.540114820003509521 0.701193928718566895 0.29200899600982666
0.800684332847595215 0.0233363192528486252 0.295325905084609985
0.712055981159210205 0.586209893226623535 0.701330780982971191
0.597731411457061768 0.136757984757423401 0.246603399515151978
0.581022381782531738 0.0262149553745985031 0.595823764801025391
0.605408191680908203 0.026000121608376503 0.600087821483612061
0.338907450437545776 0.0997713133692741394 0.473197638988494873
0.484089761972427368 0.91617351770401001 0.405400454998016357
0.633005082607269287 0.739581644535064697 0.0670108422636985779
0.803525686264038086 0.0339828357100486755 0.295698732137680054
0.767515659332275391 0.48636782169342041 0.168946802616119385
0.607252180576324463 0.0375583209097385406 0.488861799240112305
0.557032287120819092 0.0172903630882501602 0.610557973384857178
0.653447508811950684 0.021485351026058197 0.766368389129638672
0.396683663129806519 0.552497386932373047 0.585322439670562744
0.430473864078521729 0.978408992290496826 0.459466844797134399
0.260142028331756592 0.244031563401222229 0.543482601642608643
0.696220278739929199 0.719373881816864014 0.244949549436569214
0.576129257678985596 0.0118574332445859909 0.622860968112945557
0.2710551917552948 0.827822566032409668 0.147551268339157104
0.837264895439147949 0.0229076072573661804 0.513112127780914307
0.395763933658599854 0.165939360857009888 0.802264928817749023
0.704670488834381104 0.607505261898040771 0.597816109657287598
0.65591883659362793 0.445574790239334106 0.869000136852264404
0.516739189624786377 0.808009684085845947 0.414658695459365845
0.4663371741771698 0.808553695678710938 0.473360627889633179
0.826138913631439209 0.102114610373973846 0.647291064262390137
0.543532669544219971 0.107684649527072906 0.227638259530067444
0.377531945705413818 0.510097324848175049 0.590698719024658203
0.729110300540924072 0.573647201061248779 0.527998983860015869
0.639116764068603516 0.606475889682769775 0.76507568359375
0.351780354976654053 0.0127277141436934471 0.527622342109680176
0.533412694931030273 0.0298177320510149002 0.581370532512664795
0.697334945201873779 0.139197051525115967 0.933690309524536133
0.452338844537734985 0.0692903771996498108 0.263901501893997192
0.544979691505432129 0.0382281951606273651 0.471653938293457031
0.778133809566497803 0.294294059276580811 0.80920720100402832
0.477273821830749512 0.0330758653581142426 0.338812768459320068
0.408573925495147705 0.838038742542266846 0.472179979085922241
0.700936734676361084 0.625070095062255859 0.284672975540161133
0.513685524463653564 0.811837553977966309 0.24596753716468811
0.529012382030487061 0.0231715738773345947 0.61603081226348877
0.479953885078430176 0.0283524058759212494 0.633369088172912598
0.383644342422485352 0.301909029483795166 0.311049818992614746
0.734155952930450439 0.514822065830230713 0.233994275331497192
0.786290884017944336 0.24172404408454895 0.783894896507263184
0.418596148490905762 0.11543390154838562 0.793908417224884033
0.32427021861076355 0.392485469579696655 0.677292466163635254
0.740618407726287842 0.143485456705093384 0.302656710147857666
0.749437451362609863 0.617483675479888916 0.220197796821594238
0.81659996509552002 0.524732291698455811 0.123343117535114288
0.388792127370834351 0.51972806453704834 0.650159299373626709
0.311376750469207764 0.224810928106307983 0.711050271987915039
0.385290980339050293 0.387700080871582031 0.795541048049926758
0.298268765211105347 0.301723122596740723 0.678029000759124756
0.320860445499420166 0.292877256870269775 0.712450861930847168
0.362003296613693237 0.00854014512151479721 0.400869607925415039
0.408664166927337646 0.148269683122634888 0.804629087448120117
0.371337324380874634 0.0358177833259105682 0.69637984037399292
0.69491809606552124 0.638618707656860352 0.284373044967651367
0.454361915588378906 0.0082456609234213829 0.236524626612663269
0.802319228649139404 0.524276316165924072 0.0655460059642791748
0.401929229497909546 0.524747073650360107 0.417312473058700562
0.749489068984985352 0.760642588138580322 0.173099711537361145
0.383309125900268555 0.447410017251968384 0.278270572423934937
0.614969611167907715 0.0165748726576566696 0.777871429920196533
0.848899781703948975 0.226418569684028625 0.640591084957122803
0.42456391453742981 0.0372989699244499207 0.305682361125946045
0.711032748222351074 0.517003238201141357 0.0392518080770969391
0.65099865198135376 0.189219057559967041 0.222921043634414673
0.539344668388366699 0.749183356761932373 0.080214284360408783
0.570477545261383057 0.564744114875793457 0.795766294002532959
0.853066444396972656 0.320557087659835815 0.479361265897750854
0.750091493129730225 0.0664348676800727844 0.228563115000724792
0.844026565551757812 0.64542853832244873 0.128422245383262634
0.807195425033569336 0.531555771827697754 0.179492518305778503
0.42277565598487854 0.55514681339263916 0.303597301244735718
0.787048101425170898 0.340681672096252441 0.354539841413497925
0.789300858974456787 0.0508605577051639557 0.292693465948104858
0.306480467319488525 0.861475050449371338 0.148608505725860596
0.61297374963760376 0.0108407307416200638 0.641523361206054688
0.784654676914215088 0.286785036325454712 0.375973820686340332
0.505391359329223633 0.8903769850730896 0.359468579292297363
0.659774959087371826 0.542840957641601562 0.808242201805114746
0.510949552059173584 0.038076300173997879 0.418164551258087158
0.605343639850616455 0.0390140078961849213 0.542960524559020996
0.542342424392700195 0.675744533538818359 0.27454066276550293
0.390350610017776489 0.838263571262359619 0.127788230776786804
0.643336474895477295 0.630192220211029053 0.58856201171875
0.655488491058349609 0.0273562595248222351 0.453108876943588257
0.646435439586639404 0.598901093006134033 0.00155362591613084078
0.460982978343963623 0.00795953907072544098 0.297390788793563843
0.475850671529769897 0.530454874038696289 0.117814488708972931
0.390400439500808716 0.477515995502471924 0.476028949022293091
0.49096071720123291 0.822508811950683594 0.46315804123878479
0.831343472003936768 0.564308643341064453 0.177916035056114197
0.326953291893005371 0.332977384328842163 0.711090147495269775
0.79544377326965332 0.366117179393768311 0.233531966805458069
0.752978503704071045 0.045176532119512558 0.527361094951629639
0.854630708694458008 0.197946503758430481 0.565676391124725342
0.653175711631774902 0.788651764392852783 0.127770349383354187
0.563725411891937256 0.458039820194244385 0.0479312501847743988
0.501474976539611816 0.0385570265352725983 0.400766313076019287
0.357377707958221436 0.407926857471466064 0.365798264741897583
0.617747724056243896 0.311204910278320312 0.0579743608832359314
0.306205898523330688 0.352799296379089355 0.673724174499511719
0.789267122745513916 0.0162412207573652267 0.524062097072601318
0.334407716989517212 0.404624283313751221 0.459581285715103149
0.825973212718963623 0.578550875186920166 0.0689975321292877197
0.611915946006774902 0.220437154173851013 0.982932388782501221
0.7445792555809021 0.0135038811713457108 0.382451057434082031
0.540094137191772461 0.146068006753921509 0.973044455051422119
0.542635142803192139 0.192917436361312866 0.168059274554252625
0.57942664623260498 0.630301356315612793 0.347996771335601807
0.424616396427154541 0.233155921101570129 0.844099760055541992
0.384747862815856934 0.241466477513313293 0.79104989767074585
0.436420232057571411 0.563977897167205811 0.696209311485290527
0.4712563157081604 0.121515184640884399 0.870477020740509033
0.716503679752349854 0.0352512933313846588 0.419725209474563599
0.83261418342590332 0.371277719736099243 0.445544898509979248
0.378838986158370972 0.164798691868782043 0.416236758232116699
0.767176449298858643 0.190081134438514709 0.813876450061798096
0.850189805030822754 0.358326613903045654 0.467206895351409912
0.47226029634475708 0.179548323154449463 0.859093844890594482
0.46322256326675415 0.193502143025398254 0.855188548564910889
0.376620024442672729 0.0752934962511062622 0.732156932353973389
0.431175529956817627 0.95191878080368042 0.470987230539321899
0.504090666770935059 0.788834512233734131 0.121094442903995514
0.842101097106933594 0.120826996862888336 0.643546938896179199
0.847847461700439453 0.323915660381317139 0.704906582832336426
0.395651698112487793 0.877265334129333496 0.408577114343643188
0.267024189233779907 0.278160393238067627 0.529407143592834473
0.458700507879257202 0.651996433734893799 0.10413476824760437
0.473873883485794067 0.772171258926391602 0.413547515869140625
0.730337858200073242 0.587543904781341553 0.276399523019790649
0.298265576362609863 0.312369972467422485 0.42001873254776001
0.414448708295822144 0.538165271282196045 0.407029896974563599
0.532393932342529297 0.299882739782333374 0.0711577832698822021
0.495008617639541626 0.600049197673797607 0.0532447397708892822
0.35420459508895874 0.442722141742706299 0.525412857532501221
0.506905019283294678 0.731756746768951416 0.2955189049243927
0.428096532821655273 0.517924308776855469 0.758808314800262451
0.529471516609191895 0.0155533542856574059 0.702496170997619629
0.385861515998840332 0.184073388576507568 0.802444756031036377
0.416877120733261108 0.183653667569160461 0.397576719522476196
0.525788009166717529 0.316515952348709106 0.0729589834809303284
0.703179538249969482 0.616059184074401855 0.286352813243865967
0.86148303747177124 0.386220812797546387 0.495910674333572388
0.699012219905853271 0.464850723743438721 0.843664050102233887
0.590651750564575195 0.720280170440673828 0.291992604732513428
0.777422666549682617 0.636903882026672363 0.0766992345452308655
0.832740426063537598 0.0670716762542724609 0.528562545776367188
0.43993067741394043 0.580984413623809814 0.593853771686553955
0.806112468242645264 0.0762531757354736328 0.6435355544090271
0.818512976169586182 0.0955342724919319153 0.534249722957611084
0.600193440914154053 0.623538672924041748 0.02592422254383564
0.876712322235107422 0.313312172889709473 0.634693384170532227
0.739353179931640625 0.492495417594909668 0.293853789567947388
0.37899249792098999 0.902583837509155273 0.519821286201477051
0.458624601364135742 0.555233478546142578 0.746319830417633057
0.401564866304397583 0.0205408725887537003 0.697851598262786865
0.465443462133407593 0.0735733211040496826 0.23531043529510498
0.632829666137695312 0.0237015131860971451 0.576080739498138428
0.473075687885284424 0.822621166706085205 0.485928595066070557
0.496159374713897705 0.0723430588841438293 0.874071478843688965
0.784785151481628418 0.305125325918197632 0.172396928071975708
0.234170019626617432 0.880543887615203857 0.146908581256866455
0.79328000545501709 0.0658263266086578369 0.306244075298309326
0.442060947418212891 0.95100867748260498 0.429960548877716064
0.732290148735046387 0.193145692348480225 0.878782868385314941
0.373886168003082275 0.496947944164276123 0.529841363430023193
0.838699996471405029 0.587877392768859863 0.182052746415138245
0.843069314956665039 0.420646220445632935 0.592793405055999756
0.48546263575553894 0.393051624298095703 0.867077171802520752
0.707484960556030273 0.143760040402412415 0.921156823635101318
0.280392289161682129 0.384012073278427124 0.530128777027130127
0.419939756393432617 0.771275341510772705 0.116879045963287354
0.512652873992919922 0.574167430400848389 0.0601307600736618042
0.371864944696426392 0.0133063942193984985 0.637665092945098877
0.720596492290496826 0.0417690053582191467 0.529270350933074951
0.87122267484664917 0.369040876626968384 0.528017818927764893
0.431237101554870605 0.455322980880737305 0.805234789848327637
0.326737791299819946 0.123187005519866943 0.46927565336227417
0.45267409086227417 0.290421545505523682 0.119270496070384979
0.783354759216308594 0.273313850164413452 0.37753903865814209
0.771324813365936279 0.208691418170928955 0.370517134666442871
0.774289190769195557 0.199913576245307922 0.364117622375488281
0.766972184181213379 0.235357269644737244 0.402657657861709595
0.772154927253723145 0.244746223092079163 0.373724937438964844
0.772991478443145752 0.217846572399139404 0.370535135269165039
0.77191537618637085 0.226750940084457397 0.370510399341583252
0.773933649063110352 0.253994554281234741 0.373764097690582275
0.77527540922164917 0.236037120223045349 0.367329895496368408
0.777495980262756348 0.263144224882125854 0.376705676317214966
0.776978015899658203 0.281023293733596802 0.395801156759262085
0.346255570650100708 0.0438399873673915863 0.581860899925231934
0.757111847400665283 0.523032248020172119 0.0649940520524978638
0.759076297283172607 0.414754569530487061 0.801623880863189697
0.296707421541213989 0.203666329383850098 0.616568028926849365
0.492551058530807495 0.0394038595259189606 0.478846997022628784
0.516934037208557129 0.00880988873541355133 0.345732778310775757
0.16891932487487793 0.852593123912811279 0.191023841500282288
0.598199069499969482 0.0129277734085917473 0.621317267417907715
0.620382905006408691 0.0386906303465366364 0.529763221740722656
0.516625404357910156 0.830591738224029541 0.360141992568969727
0.565314531326293945 0.0469341054558753967 0.874850213527679443
0.826103031635284424 0.547807633876800537 0.167610019445419312
0.781583845615386963 0.108566127717494965 0.763117194175720215
0.558701932430267334 0.0190100241452455521 0.744490981101989746
0.768230319023132324 0.217385530471801758 0.286086797714233398
0.366163402795791626 0.978711187839508057 0.516425073146820068
0.52098381519317627 0.117468602955341339 0.954339146614074707
0.58518517017364502 0.0125000318512320518 0.200345829129219055
0.49105408787727356 0.00710949953645467758 0.239187136292457581
0.602303147315979004 0.0528317578136920929 0.861601293087005615
0.413825094699859619 0.848886609077453613 0.411470204591751099
0.629633128643035889 0.0953259468078613281 0.223839104175567627
0.556808054447174072 0.51904827356338501 0.0405580736696720123
0.710052430629730225 0.293537825345993042 0.867881953716278076
0.851367056369781494 0.399234086275100708 0.646595597267150879
0.726971268653869629 0.302156031131744385 0.859740912914276123
0.324067592620849609 0.0455766730010509491 0.456563293933868408
0.527441203594207764 0.0181375071406364441 0.763936161994934082
0.427856415510177612 0.185791730880737305 0.279852300882339478
0.507037639617919922 0.114764474332332611 0.916784584522247314
0.776484131813049316 0.0196927599608898163 0.699531793594360352
0.315695017576217651 0.197933465242385864 0.690409064292907715
0.584026813507080078 0.802441239356994629 0.281490564346313477
0.361723273992538452 0.379705667495727539 0.358799010515213013
0.74858701229095459 0.0428913719952106476 0.468568205833435059
0.85535198450088501 0.302459865808486938 0.69846808910369873
0.773423075675964355 0.233232989907264709 0.311047911643981934
0.58218914270401001 0.577016174793243408 0.0103858122602105141
0.837084054946899414 0.0205749087035655975 0.462589681148529053
0.379775792360305786 0.408469229936599731 0.281351834535598755
0.615852713584899902 0.282450407743453979 0.0727486908435821533
0.847333967685699463 0.627552449703216553 0.111277841031551361
0.752096056938171387 0.490682899951934814 0.349926292896270752
0.351818889379501343 0.14082905650138855 0.748597621917724609
0.641325235366821289 0.35820809006690979 0.0484849065542221069
0.410665452480316162 0.252052992582321167 0.237478703260421753
0.420355290174484253 0.555984914302825928 0.531986474990844727
0.494046390056610107 0.77182769775390625 0.105644553899765015
0.794720947742462158 0.38144037127494812 0.406358838081359863
0.350374072790145874 0.179243117570877075 0.759426355361938477
0.621718525886535645 0.0159194488078355789 0.379371404647827148
0.157037794589996338 0.901016950607299805 0.207212090492248535
0.776208937168121338 0.0180058535188436508 0.550890445709228516
0.70467376708984375 0.507847189903259277 0.812444210052490234
0.808448970317840576 0.686464607715606689 0.125777095556259155
0.280437588691711426 0.204912647604942322 0.487379372119903564
0.433242887258529663 0.854933500289916992 0.51085054874420166
0.59733659029006958 0.63191986083984375 0.588266193866729736
0.312043428421020508 0.156420975923538208 0.692224383354187012
0.428300440311431885 0.0373958349227905273 0.652154207229614258
0.645938336849212646 0.11701548844575882 0.966904342174530029
0.754893183708190918 0.454792201519012451 0.820753276348114014
0.688625812530517578 0.271233886480331421 0.105032108724117279
0.791805684566497803 0.451999038457870483 0.585624873638153076
0.447002530097961426 0.0462494418025016785 0.251573860645294189
0.633435368537902832 0.225806817412376404 0.97626185417175293
0.787416756153106689 0.490348666906356812 0.592073142528533936
0.374468356370925903 0.00966795533895492554 0.470470905303955078
0.649477005004882812 0.642878234386444092 0.0263097770512104034
0.39823266863822937 0.0813147574663162231 0.335154533386230469
0.859163165092468262 0.167191147804260254 0.569637835025787354
0.64833301305770874 0.311349749565124512 0.0666683614253997803
0.389746189117431641 0.292270809412002563 0.244369015097618103
0.554025173187255859 0.00928324554115533829 0.387443721294403076
0.470988094806671143 0.60179603099822998 0.363756716251373291
0.575952649116516113 0.225754827260971069 0.125276669859886169
0.533299505710601807 0.483330637216567993 0.0677558481693267822
0.459238559007644653 0.845408737659454346 0.468621164560317993
0.573084235191345215 0.515127241611480713 0.0363904088735580444
0.602459609508514404 0.479292839765548706 0.0509087853133678436
0.659844338893890381 0.471010029315948486 0.0597161650657653809
0.621799290180206299 0.787630617618560791 0.198376163840293884
0.769531726837158203 0.0407857000827789307 0.738347887992858887
0.743260324001312256 0.313332349061965942 0.113364428281784058
0.771561145782470703 0.532734930515289307 0.0497356951236724854
0.788191318511962891 0.47105821967124939 0.586073398590087891
0.663872599601745605 0.787103950977325439 0.200639680027961731
0.392818212509155273 0.339788913726806641 0.18564663827419281
0.434972524642944336 0.541176199913024902 0.736622810363769531
0.727211177349090576 0.539091885089874268 0.421401023864746094
0.822892546653747559 0.110024422407150269 0.527943313121795654
0.792762875556945801 0.434363245964050293 0.479899734258651733
0.475818872451782227 0.910441279411315918 0.361624658107757568
0.794974625110626221 0.418428152799606323 0.75782310962677002
0.494153767824172974 0.844891726970672607 0.387515336275100708
0.761714935302734375 0.498911738395690918 0.192283660173416138
0.767292022705078125 0.112704604864120483 0.401242464780807495
0.578929424285888672 0.763979196548461914 0.0705527886748313904
0.637807905673980713 0.204817593097686768 0.98278343677520752
0.445537060499191284 0.585908055305480957 0.596620023250579834
0.717283725738525391 0.236752286553382874 0.187122389674186707
0.39975273609161377 0.262381225824356079 0.298408448696136475
0.473744332790374756 0.00683974334970116615 0.239028185606002808
0.578526079654693604 0.137439504265785217 0.976042509078979492
0.713598012924194336 0.568782031536102295 0.742380142211914062
0.38396039605140686 0.126705467700958252 0.784592270851135254
0.390708029270172119 0.187706694006919861 0.405608266592025757
0.413695603609085083 0.334444642066955566 0.837438583374023438
0.525295555591583252 0.0388666093349456787 0.52678978443145752
0.581513881683349609 0.0185173507779836655 0.372025549411773682
0.766903817653656006 0.0622370168566703796 0.763127923011779785
0.162349134683609009 0.954291939735412598 0.141844838857650757
0.283371448516845703 0.221181198954582214 0.624870479106903076
0.622546732425689697 0.0170068014413118362 0.615944981575012207
0.490027725696563721 0.85736769437789917 0.307753235101699829
0.800394058227539062 0.382396787405014038 0.232461348176002502
0.688399255275726318 0.0384740568697452545 0.467576652765274048
0.744602382183074951 0.12276747077703476 0.819948375225067139
0.669409751892089844 0.515433847904205322 0.0330762192606925964
0.470570981502532959 0.682692587375640869 0.238193243741989136
0.783096909523010254 0.417486608028411865 0.216395407915115356
0.555123269557952881 0.774570107460021973 0.0838168412446975708
0.79336702823638916 0.303393036127090454 0.800078332424163818
0.459188103675842285 0.791933774948120117 0.115781717002391815
0.570346534252166748 0.741079211235046387 0.309661269187927246
0.833726942539215088 0.0231805704534053802 0.415249615907669067
0.731927990913391113 0.0185087341815233231 0.674761533737182617
0.516882240772247314 0.0574922971427440643 0.873030304908752441
0.460005015134811401 0.555477797985076904 0.116859182715415955
0.32783159613609314 0.271787792444229126 0.420972108840942383
0.500190496444702148 0.215967044234275818 0.185775294899940491
0.42116391658782959 0.825678348541259766 0.131988629698753357
0.548021435737609863 0.388310432434082031 0.046725057065486908
0.41369020938873291 0.0368267782032489777 0.400458276271820068
0.561735928058624268 0.0408239178359508514 0.162729039788246155
0.614571094512939453 0.555188536643981934 0.00808096490800380707
0.795468330383300781 0.317793279886245728 0.286396175622940063
0.719355642795562744 0.481125712394714355 0.103579983115196228
0.598953843116760254 0.0222534667700529099 0.186735287308692932
0.406709432601928711 0.22981967031955719 0.295625567436218262
0.345992922782897949 0.384092658758163452 0.717412114143371582
0.33398321270942688 0.0984243452548980713 0.639356911182403564
0.68300020694732666 0.509022533893585205 0.0545870512723922729
0.741787493228912354 0.152707561850547791 0.802038788795471191
0.506865561008453369 0.719043135643005371 0.271326392889022827
0.565684676170349121 0.624771475791931152 0.54035794734954834
0.407023161649703979 0.735870420932769775 0.177143394947052002
0.675040006637573242 0.0287387296557426453 0.639845371246337891
0.603155434131622314 0.282881677150726318 0.0715839341282844543
0.872480213642120361 0.339181631803512573 0.626259326934814453
0.380233943462371826 0.189455598592758179 0.424623459577560425
0.281659811735153198 0.280019193887710571 0.642045855522155762
0.335699975490570068 0.205550745129585266 0.741794109344482422
0.314450323581695557 0.106711298227310181 0.584756374359130859
0.467460840940475464 0.00911112036556005478 0.18906383216381073
0.721861839294433594 0.0397940389811992645 0.638449370861053467
0.835895717144012451 0.340669006109237671 0.482904344797134399
0.708163022994995117 0.557992637157440186 0.361421704292297363
0.56279289722442627 0.0788726583123207092 0.927320957183837891
0.463485538959503174 0.141335070133209229 0.306130945682525635
0.469281673431396484 0.0401453599333763123 0.484820395708084106
0.136073246598243713 0.834769308567047119 0.196156814694404602
0.397307932376861572 0.385748744010925293 0.18216589093208313
0.502549231052398682 0.176104649901390076 0.921191215515136719
0.48768925666809082 0.860957682132720947 0.419295638799667358
0.479877263307571411 0.0401835665106773376 0.171099990606307983
0.597471117973327637 0.0224503185600042343 0.77558976411819458
0.330591410398483276 0.410601824522018433 0.642627596855163574
0.80810248851776123 0.408621430397033691 0.462318003177642822
0.597830116748809814 0.0367895253002643585 0.467759877443313599
0.793745338916778564 0.399175643920898438 0.41808241605758667
0.424644976854324341 0.821725249290466309 0.412241548299789429
0.702157258987426758 0.590304374694824219 0.000502881535794585943
0.318525791168212891 0.0486334636807441711 0.41130375862121582
0.841995418071746826 0.046631593257188797 0.414521276950836182
0.480438560247421265 0.364899247884750366 0.0753803551197052002
0.384901642799377441 0.516832411289215088 0.521542966365814209
0.709306895732879639 0.249111771583557129 0.870867013931274414
0.320559859275817871 0.0107469568029046059 0.411068469285964966
0.351471126079559326 0.00835613999515771866 0.468640774488449097
0.334054499864578247 0.123629197478294373 0.697217047214508057
0.383874654769897461 0.461372882127761841 0.284636378288269043
0.424031555652618408 0.74695277214050293 0.122310683131217957
0.837159872055053711 0.409084826707839966 0.525997579097747803
0.499204963445663452 0.775946557521820068 0.236897140741348267
0.677170455455780029 0.0495319291949272156 0.794784724712371826
0.544625818729400635 0.483854353427886963 0.862015306949615479
0.555914342403411865 0.391146332025527954 0.899048447608947754
0.552725076675415039 0.399967879056930542 0.896796703338623047
0.549489021301269531 0.408855825662612915 0.893749475479125977
0.527890563011169434 0.514623045921325684 0.837164938449859619
0.546290814876556396 0.41767960786819458 0.890477120876312256
0.543120801448822021 0.426480233669281006 0.886752009391784668
0.55430448055267334 0.524912118911743164 0.833136022090911865
0.530362546443939209 0.452721565961837769 0.873917639255523682
0.533468186855316162 0.444112032651901245 0.87870633602142334
0.536729216575622559 0.43526160717010498 0.883336722850799561
0.843520820140838623 0.148912280797958374 0.681805253028869629
0.44655272364616394 0.780421197414398193 0.11582956463098526
0.850169241428375244 0.0232990775257349014 0.464272081851959229
0.483211398124694824 0.817849159240722656 0.473390311002731323
0.731582105159759521 0.0285104140639305115 0.408665090799331665
0.863073647022247314 0.278374910354614258 0.684693634510040283
0.542022109031677246 0.0231405943632125854 0.725419878959655762
0.744086980819702148 0.436874330043792725 0.125606104731559753
0.677332222461700439 0.118378244340419769 0.922425925731658936
0.473264455795288086 0.0755428299307823181 0.81245124340057373
0.734913170337677002 0.550288021564483643 0.698781311511993408
0.781095921993255615 0.426452606916427612 0.303091853857040405
0.63878631591796875 0.587089955806732178 0
0.425930261611938477 0.92510610818862915 0.487194031476974487
0.558816015720367432 0.0119512118399143219 0.280153036117553711
0.503769278526306152 0.6087912917137146 0.692296862602233887
0.546808063983917236 0.0309927612543106079 0.592938482761383057
0.549938201904296875 0.25848686695098877 0.935522079467773438
0.372733920812606812 0.0106185209006071091 0.587768077850341797
0.151006102561950684 0.826783120632171631 0.188271597027778625
0.838149428367614746 0.55530250072479248 0.127198100090026855
0.664639651775360107 0.606616437435150146 0.699815690517425537
