ply
format ascii 1.0
element vertex 346
property float x
property float y
property float z
end_header
0.412880629301071167 0.390625 0.354430526494979858
0.546863913536071777 0.642550170421600342 0.820380628108978271
0.5 0.61236041784286499 0.0692554488778114319
0.40554279088973999 0.226108476519584656 0.62527167797088623
0.461455583572387695 0.594206094741821289 0.0844861790537834167
0.562867462635040283 0.392488151788711548 0.445696175098419189
0.472376078367233276 0.622211933135986328 0.0830784589052200317
0.526566028594970703 0.781680643558502197 0.825748920440673828
0.617223501205444336 0.530931234359741211 0.174248963594436646
0.60470879077911377 0.205971166491508484 0.1522512286901474
0.410433173179626465 0.261249154806137085 0.13260042667388916
0.481796979904174805 0.710673809051513672 0.625260353088378906
0.580891668796539307 0.644614219665527344 0.537301778793334961
0.539578676223754883 0.690611124038696289 0.633509218692779541
0.614933788776397705 0.445988595485687256 0.190506100654602051
0.605442404747009277 0.567337334156036377 0.648179292678833008
0.460768252611160278 0.354193240404129028 0.198503762483596802
0.584267795085906982 0.790152907371520996 0.866108238697052002
0.482674598693847656 0.60678631067276001 0.800300419330596924
0.615825414657592773 0.577328920364379883 0.537383019924163818
0.521476149559020996 0.647902727127075195 0.977838575839996338
0.407437801361083984 0.254833638668060303 0.608860135078430176
0.479353487491607666 0.404255330562591553 0.0334935151040554047
0.534135103225708008 0.435336679220199585 0.696462810039520264
0.483861148357391357 0.639044404029846191 0.976630270481109619
0.432747066020965576 0.320665568113327026 0.178830131888389587
0.419214606285095215 0.617330789566040039 0.529201030731201172
0.603568553924560547 0.64169687032699585 0.183265402913093567
0.571191668510437012 0.415197432041168213 0.533479392528533936
0.588737010955810547 0.198790252208709717 0.630439996719360352
0.482554078102111816 0.544871389865875244 0.772873640060424805
0.399303406476974487 0.420433163642883301 0.618478298187255859
0.457531780004501343 0.335935741662979126 0.201734066009521484
0.415900051593780518 0.439650088548660278 0.646419882774353027
0.58710014820098877 0.802829980850219727 0.872169733047485352
0.5 0.714131057262420654 0.623603403568267822
0.590182900428771973 0.6751059889793396 0.27671399712562561
0.511526405811309814 0.563649535179138184 0.781493842601776123
0.45446285605430603 0.696222186088562012 0.889729321002960205
0.63301241397857666 0.515282571315765381 0.245992779731750488
0.41367870569229126 0.237518459558486938 0.615159511566162109
0.460864663124084473 0.389851391315460205 0.654946565628051758
0.428672879934310913 0.217289626598358154 0.631908833980560303
0.5 0.708173990249633789 0.472045570611953735
0.497237443923950195 0.639029145240783691 0.0622980520129203796
0.488169670104980469 0.703372478485107422 0.944821655750274658
0.600432395935058594 0.437889069318771362 0.185542747378349304
0.508858859539031982 0.468237102031707764 0.0659171566367149353
0.419399261474609375 0.500898957252502441 0.107690431177616119
0.410714954137802124 0.600253582000732422 0.650835752487182617
0.578100740909576416 0.289890974760055542 0.593365848064422607
0.368701726198196411 0.549490988254547119 0.192692831158638
0.405435919761657715 0.578358590602874756 0.109054818749427795
0.396129459142684937 0.585794746875762939 0.127660855650901794
0.388458192348480225 0.563479840755462646 0.13416309654712677
0.382776528596878052 0.586889564990997314 0.158484995365142822
0.381524205207824707 0.567326486110687256 0.15883152186870575
0.378051847219467163 0.595528662204742432 0.184307008981704712
0.376429110765457153 0.54935300350189209 0.168405413627624512
0.373927175998687744 0.570816576480865479 0.188826069235801697
0.379773974418640137 0.586470544338226318 0.214334458112716675
0.367754489183425903 0.547419190406799316 0.236407160758972168
0.5 0.456149846315383911 0.059118662029504776
0.456459403038024902 0.368755340576171875 0.274524331092834473
0.461594134569168091 0.697013378143310547 0.569036483764648438
0.423601120710372925 0.749422729015350342 0.817083477973937988
0.469068050384521484 0.753289937973022461 0.785533368587493896
0.454391002655029297 0.710944294929504395 0.797385513782501221
0.443763762712478638 0.73180466890335083 0.800659716129302979
0.449802279472351074 0.721519112586975098 0.816056728363037109
0.412057936191558838 0.730459988117218018 0.811701714992523193
0.412193328142166138 0.716320335865020752 0.823075056076049805
0.446017026901245117 0.7358664870262146 0.850145578384399414
0.382706701755523682 0.720935463905334473 0.823253989219665527
0.423519432544708252 0.775005042552947998 0.845265567302703857
0.426225572824478149 0.78784787654876709 0.841487705707550049
0.462800860404968262 0.471929043531417847 0.0741721838712692261
0.428769052028656006 0.801652014255523682 0.880864322185516357
0.544188916683197021 0.555789172649383545 0.73629683256149292
0.547820508480072021 0.590910255908966064 0.739809751510620117
0.559155523777008057 0.612414658069610596 0.695117294788360596
0.566844403743743896 0.560249805450439453 0.696743965148925781
0.5932808518409729 0.522061645984649658 0.675346314907073975
0.601951956748962402 0.44968077540397644 0.550190985202789307
0.624013125896453857 0.202137887477874756 0.151350840926170349
0.4722919762134552 0.729733943939208984 0.890581488609313965
0.387915313243865967 0.431262284517288208 0.447489619255065918
0.518203020095825195 0.710673809051513672 0.625260353088378906
0.498200446367263794 0.390206426382064819 0.0780473798513412476
0.530336201190948486 0.685108304023742676 0.11132185161113739
0.44321170449256897 0.720209598541259766 0.886395275592803955
0.585979461669921875 0.209197923541069031 0.606337845325469971
0.623629510402679443 0.502738118171691895 0.58641350269317627
0.587010204792022705 0.200474679470062256 0.170306369662284851
0.389073669910430908 0.211497873067855835 0.63480377197265625
0.452979177236557007 0.633053719997406006 0.921337366104125977
0.391458809375762939 0.419587492942810059 0.184895455837249756
0.536132216453552246 0.361252486705780029 0.198416486382484436
0.378801047801971436 0.204322129487991333 0.153647243976593018
0.505521297454833984 0.638963878154754639 0.0616635270416736603
0.427777290344238281 0.374037772417068481 0.353274881839752197
0.551190376281738281 0.681233108043670654 0.38441699743270874
0.518748342990875244 0.598331630229949951 0.808708250522613525
0.548194169998168945 0.650251567363739014 0.906708896160125732
0.438482522964477539 0.664668858051300049 0.87233346700668335
0.595109105110168457 0.408536911010742188 0.570586800575256348
0.564708232879638672 0.318131238222122192 0.181750625371932983
0.588670492172241211 0.419755727052688599 0.271040827035903931
0.620783984661102295 0.534968078136444092 0.550848782062530518
0.542697489261627197 0.684404730796813965 0.474279075860977173
0.421824634075164795 0.246702119708061218 0.612084090709686279
0.412564188241958618 0.409432381391525269 0.27054479718208313
0.38518562912940979 0.476170182228088379 0.188636928796768188
0.48547893762588501 0.704727530479431152 0.372274965047836304
0.609846115112304688 0.479722410440444946 0.567508161067962646
0.427261590957641602 0.321893006563186646 0.183252081274986267
0.480397075414657593 0.449692994356155396 0.051285620778799057
0.435650140047073364 0.379633218050003052 0.2694263756275177
0.5 0.507888495922088623 0.0773839503526687622
0.497734159231185913 0.647435605525970459 0.966732263565063477
0.417406797409057617 0.294918179512023926 0.600133061408996582
0.421521544456481934 0.675320923328399658 0.318868786096572876
0.604915618896484375 0.215684756636619568 0.629247844219207764
0.403334617614746094 0.435789585113525391 0.54034125804901123
0.400684535503387451 0.613242030143737793 0.463159054517745972
0.521277308464050293 0.703046739101409912 0.369365870952606201
0.388065516948699951 0.608585476875305176 0.27143743634223938
0.414020538330078125 0.209197923541069031 0.606337845325469971
0.446232408285140991 0.366263717412948608 0.638059735298156738
0.59249192476272583 0.262048929929733276 0.605500638484954834
0.494910091161727905 0.590553045272827148 0.0651205629110336304
0.386295735836029053 0.454523622989654541 0.280287027359008789
0.375897824764251709 0.21223171055316925 0.149581924080848694
0.458394736051559448 0.395250111818313599 0.542827606201171875
0.459828615188598633 0.398442745208740234 0.513104557991027832
0.556407749652862549 0.678353965282440186 0.624883592128753662
0.446512997150421143 0.707262873649597168 0.184397205710411072
0.516058027744293213 0.717052280902862549 0.726225197315216064
0.398337006568908691 0.234963491559028625 0.618876338005065918
0.573006272315979004 0.339440971612930298 0.109276376664638519
0.405779838562011719 0.207189828157424927 0.148957788944244385
0.472827553749084473 0.763755738735198975 0.874009490013122559
0.594679534435272217 0.2134905606508255 0.653917431831359863
0.56728661060333252 0.436621576547622681 0.64681011438369751
0.511830329895019531 0.703372478485107422 0.944821655750274658
0.543083727359771729 0.370711088180541992 0.272687792778015137
0.583182394504547119 0.734864115715026855 0.812383830547332764
0.415755420923233032 0.362361371517181396 0.607298135757446289
0.416056662797927856 0.347154289484024048 0.1137704998254776
0.635528385639190674 0.483368426561355591 0.261516392230987549
0.580099523067474365 0.252573549747467041 0.60678941011428833
0.528062343597412109 0.704436838626861572 0.612171351909637451
0.465159296989440918 0.69843822717666626 0.714598417282104492
0.602081179618835449 0.437927693128585815 0.626260578632354736
0.407460212707519531 0.655446052551269531 0.265461981296539307
0.439079254865646362 0.365198969841003418 0.549696028232574463
0.612084686756134033 0.431262284517288208 0.447489619255065918
0.452261388301849365 0.551219403743743896 0.727415919303894043
0.436473667621612549 0.535181403160095215 0.687028348445892334
0.450683474540710449 0.617007255554199219 0.707992792129516602
0.453008025884628296 0.495032280683517456 0.703931748867034912
0.445021331310272217 0.58003544807434082 0.718784034252166748
0.452113568782806396 0.628894150257110596 0.731094896793365479
0.452179461717605591 0.590910255908966064 0.739809751510620117
0.463600844144821167 0.527280867099761963 0.73204350471496582
0.4606894850730896 0.558299064636230469 0.746476888656616211
0.477131187915802002 0.509187042713165283 0.743028044700622559
0.47539094090461731 0.534094274044036865 0.754963934421539307
0.467324823141098022 0.647939383983612061 0.983423292636871338
0.608876466751098633 0.783281803131103516 0.855464398860931396
0.585554897785186768 0.212414398789405823 0.150717124342918396
0.589566826820373535 0.261249154806137085 0.13260042667388916
0.461512446403503418 0.385784000158309937 0.47166857123374939
0.521182477474212646 0.699427187442779541 0.471720069646835327
0.422035664319992065 0.391677290201187134 0.270066291093826294
0.5 0.709033191204071045 0.373261779546737671
0.508157670497894287 0.425760895013809204 0.0370190590620040894
0.523439109325408936 0.738035380840301514 0.907333731651306152
0.5 0.371463149785995483 0.148763358592987061
0.464500993490219116 0.631321251392364502 0.0748262926936149597
0.563214778900146484 0.698728621006011963 0.271410614252090454
0.500053942203521729 0.702012717723846436 0.950730979442596436
0.355990320444107056 0.427093982696533203 0.350728332996368408
0.579787373542785645 0.224018454551696777 0.623990535736083984
0.390333175659179688 0.643108963966369629 0.184798583388328552
0.571230947971343994 0.801652014255523682 0.880864322185516357
0.463055700063705444 0.68556445837020874 0.634065389633178711
0.5 0.365215837955474854 0.198291495442390442
0.467933595180511475 0.360678404569625854 0.224141448736190796
0.451577425003051758 0.642868757247924805 0.826336026191711426
0.442247122526168823 0.397982776165008545 0.0981185957789421082
0.611853837966918945 0.40146106481552124 0.354896247386932373
0.608820021152496338 0.566489517688751221 0.452730029821395874
0.529850006103515625 0.703071773052215576 0.567378520965576172
0.463783919811248779 0.741959452629089355 0.886885762214660645
0.446052730083465576 0.643420040607452393 0.879849910736083984
0.585263431072235107 0.53172755241394043 0.108692735433578491
0.609605312347412109 0.639437973499298096 0.284481525421142578
0.351276487112045288 0.504937708377838135 0.272160738706588745
0.5 0.389545440673828125 0.638951897621154785
0.478049933910369873 0.713390886783599854 0.188672035932540894
0.51813662052154541 0.697448253631591797 0.0890088453888893127
0.475527644157409668 0.70683753490447998 0.566741526126861572
0.650191187858581543 0.443227678537368774 0.350789844989776611
0.444969445466995239 0.671337902545928955 0.102145008742809296
0.444925785064697266 0.715469419956207275 0.911261618137359619
0.577367722988128662 0.390628337860107422 0.270066291093826294
0.416978806257247925 0.788510382175445557 0.869392514228820801
0.512053132057189941 0.673558890819549561 0.975829362869262695
0.537584125995635986 0.450079500675201416 0.0735974982380867004
0.389980912208557129 0.504362761974334717 0.658056437969207764
0.449550867080688477 0.361757993698120117 0.170574977993965149
0.517017960548400879 0.626624464988708496 0.910476744174957275
0.549527525901794434 0.398831874132156372 0.0977161228656768799
0.385095715522766113 0.203781232237815857 0.634840011596679688
0.355270087718963623 0.515720069408416748 0.444099098443984985
0.436467736959457397 0.676905572414398193 0.57036745548248291
0.490038812160491943 0.430850118398666382 0.0219782274216413498
0.485463708639144897 0.715012490749359131 0.270951956510543823
0.540171384811401367 0.366374880075454712 0.556115627288818359
0.395310401916503906 0.571990847587585449 0.631500542163848877
0.379153639078140259 0.531716048717498779 0.55046689510345459
0.573743283748626709 0.791511893272399902 0.868038952350616455
0.555466055870056152 0.368418604135513306 0.179864034056663513
0.576080203056335449 0.695419847965240479 0.186636596918106079
0.428287237882614136 0.414714843034744263 0.557619571685791016
0.583590924739837646 0.429359793663024902 0.532998740673065186
0.536249637603759766 0.490489542484283447 0.0775138884782791138
0.514430761337280273 0.553613781929016113 0.0705905631184577942
0.409390568733215332 0.396990448236465454 0.119418933987617493
0.472692966461181641 0.695198476314544678 0.472375392913818359
0.372720956802368164 0.512263655662536621 0.193128734827041626
0.387611716985702515 0.449283719062805176 0.175315499305725098
0.485262244939804077 0.577932596206665039 0.789723873138427734
0.407819211483001709 0.444958895444869995 0.217906728386878967
0.569404542446136475 0.658456504344940186 0.45197644829750061
0.512481272220611572 0.400294601917266846 0.035834241658449173
0.449268937110900879 0.381825834512710571 0.292303621768951416
0.388783663511276245 0.200979128479957581 0.183945745229721069
0.5 0.71299821138381958 0.56516033411026001
0.54687654972076416 0.691075563430786133 0.887936890125274658
0.38276296854019165 0.545193850994110107 0.154432356357574463
0.338927179574966431 0.486179649829864502 0.357880085706710815
0.386209428310394287 0.781450390815734863 0.851849496364593506
0.428821474313735962 0.39428335428237915 0.446583360433578491
0.439121395349502563 0.614201605319976807 0.63965219259262085
0.4223175048828125 0.364216446876525879 0.111793637275695801
0.535499036312103271 0.631321251392364502 0.0748262926936149597
0.604786396026611328 0.437569111585617065 0.274151712656021118
0.625682055950164795 0.459678620100021362 0.274445056915283203
0.610405385494232178 0.207121163606643677 0.629761636257171631
0.57860797643661499 0.802464485168457031 0.8645058274269104
0.485892832279205322 0.481302052736282349 0.0587512999773025513
0.496513217687606812 0.375867903232574463 0.431343019008636475
0.413409262895584106 0.790305197238922119 0.866888344287872314
0.398013114929199219 0.207038924098014832 0.634402275085449219
0.627651095390319824 0.411056071519851685 0.352648764848709106
0.409747719764709473 0.690441668033599854 0.282730668783187866
0.586522281169891357 0.413818359375 0.110275663435459137
0.536104857921600342 0.683354020118713379 0.730151712894439697
0.572368085384368896 0.370555371046066284 0.346571415662765503
0.454998910427093506 0.681492924690246582 0.469342559576034546
0.660044074058532715 0.554387569427490234 0.353588610887527466
0.391935050487518311 0.221125200390815735 0.146402657032012939
0.573105692863464355 0.326401174068450928 0.183509171009063721
0.562539458274841309 0.661962926387786865 0.104860365390777588
0.470144271850585938 0.489079296588897705 0.0680814683437347412
0.462415903806686401 0.450079500675201416 0.0735974982380867004
0.417100399732589722 0.803695380687713623 0.865268707275390625
0.386798828840255737 0.4029807448387146 0.357242494821548462
0.525541245937347412 0.716419458389282227 0.196715414524078369
0.480808764696121216 0.617544651031494141 0.913513779640197754
0.411262989044189453 0.198790252208709717 0.630439996719360352
0.641071140766143799 0.508941650390625 0.452154934406280518
0.458652615547180176 0.378468453884124756 0.126861140131950378
0.497126579284667969 0.778266608715057373 0.818521440029144287
0.393395334482192993 0.455090820789337158 0.560100853443145752
0.476835340261459351 0.758969664573669434 0.784332036972045898
0.568647265434265137 0.202318757772445679 0.634932398796081543
0.571258425712585449 0.206517711281776428 0.635404407978057861
0.498466670513153076 0.730524539947509766 0.117745183408260345
0.618566632270812988 0.593629181385040283 0.266514092683792114
0.467446237802505493 0.685768008232116699 0.101517796516418457
0.368807286024093628 0.585996866226196289 0.360259532928466797
0.625341296195983887 0.434010714292526245 0.291412144899368286
0.506711483001708984 0.752738475799560547 0.889338076114654541
0.5 0.392848223447799683 0.546926021575927734
0.450360715389251709 0.370551228523254395 0.346605122089385986
0.593936145305633545 0.387364894151687622 0.18247617781162262
0.47325095534324646 0.364858537912368774 0.347604811191558838
0.409557193517684937 0.801916956901550293 0.879318177700042725
0.521652936935424805 0.70817410945892334 0.286177843809127808
0.497669458389282227 0.366558670997619629 0.0178452730178833008
0.503024101257324219 0.48903849720954895 0.0593590736389160156
0.368130385875701904 0.197018250823020935 0.164331749081611633
0.498989850282669067 0.723814070224761963 0.726666927337646484
0.556227266788482666 0.365896940231323242 0.633492350578308105
0.460784435272216797 0.665609180927276611 0.924889922142028809
0.481998950242996216 0.674408972263336182 0.976606845855712891
0.587774991989135742 0.60480046272277832 0.108810991048812866
0.541347384452819824 0.378468453884124756 0.126861140131950378
0.529227614402770996 0.603280484676361084 0.0850660353899002075
0.603745460510253906 0.382050126791000366 0.131555214524269104
0.435495227575302124 0.417560607194900513 0.655993819236755371
0.387505769729614258 0.479135811328887939 0.549629867076873779
0.536399185657501221 0.527280867099761963 0.73204350471496582
0.577475786209106445 0.484976530075073242 0.676174283027648926
0.576179325580596924 0.523099720478057861 0.68445664644241333
0.570791780948638916 0.507805228233337402 0.685491681098937988
0.536779284477233887 0.487793982028961182 0.710000574588775635
0.552585065364837646 0.524824261665344238 0.70280754566192627
0.522868812084197998 0.509187042713165283 0.743028044700622559
0.534025728702545166 0.549061417579650879 0.749204516410827637
0.5 0.506022930145263672 0.745030879974365234
0.521285295486450195 0.532212495803833008 0.758603930473327637
0.5 0.528435170650482178 0.759471595287322998
0.524530649185180664 0.770797967910766602 0.863986432552337646
0.577679991722106934 0.370043665170669556 0.611347794532775879
0.618523299694061279 0.210701480507850647 0.150784626603126526
0.543631792068481445 0.619930803775787354 0.807528913021087646
0.661840081214904785 0.509202003479003906 0.324820578098297119
0.578887879848480225 0.382908612489700317 0.347826749086380005
0.484608948230743408 0.703250527381896973 0.447099894285202026
0.601684927940368652 0.256265163421630859 0.14317600429058075
0.571918964385986328 0.491029024124145508 0.107234612107276917
0.539759159088134766 0.338263452053070068 0.204776883125305176
0.542731642723083496 0.471713483333587646 0.0746904239058494568
0.464242637157440186 0.448266565799713135 0.698131799697875977
0.446052730083465576 0.679501712322235107 0.381607949733734131
0.577359795570373535 0.231475904583930969 0.608568131923675537
0.48506048321723938 0.455281376838684082 0.715180575847625732
0.564985811710357666 0.4145965576171875 0.539823472499847412
0.467341005802154541 0.697244167327880859 0.368097990751266479
0.582518160343170166 0.649014949798583984 0.655785143375396729
0.557550668716430664 0.664765119552612305 0.923144102096557617
0.4014853835105896 0.458141684532165527 0.230013400316238403
0.491846084594726562 0.408610165119171143 0.692517518997192383
0.414381325244903564 0.631387770175933838 0.112898819148540497
0.543843209743499756 0.741369903087615967 0.890673279762268066
0.436785250902175903 0.698728621006011963 0.271410614252090454
0.619029343128204346 0.512505471706390381 0.517636537551879883
0.480314135551452637 0.540094971656799316 0.0731928199529647827
0.662908613681793213 0.486248284578323364 0.374601304531097412
0.392450094223022461 0.236890926957130432 0.129652306437492371
0.636101126670837402 0.471867382526397705 0.453056752681732178
0.563532233238220215 0.676905572414398193 0.57036745548248291
