ply
format ascii 1.0
element vertex 764
property float x
property float y
property float z
end_header
0.354653924703598022 0.315342724323272705 0.665189564228057861
0.643488943576812744 0.215941876173019409 0.199717357754707336
0.508005440235137939 0.155504509806632996 0.839768886566162109
0.341474205255508423 0.240223318338394165 0.384121716022491455
0.426887303590774536 0.633030295372009277 0.521452367305755615
0.497046738862991333 0.585818886756896973 0.263314723968505859
0.448897391557693481 0.309752136468887329 0.608925700187683105
0.48612251877784729 0.336799412965774536 0.545116066932678223
0.666587173938751221 0.310366034507751465 0.743107318878173828
0.704425632953643799 0.241025656461715698 0.253178507089614868
0.422198027372360229 0.166224583983421326 0.243192300200462341
0.421297729015350342 0.170424312353134155 0.233738571405410767
0.582946062088012695 0.157798707485198975 0.38074791431427002
0.578585147857666016 0.171660959720611572 0.357926994562149048
0.578266739845275879 0.165879905223846436 0.562895834445953369
0.504379153251647949 0.64212411642074585 0.203703537583351135
0.411478310823440552 0.621955513954162598 0.222778618335723877
0.410532712936401367 0.674135744571685791 0.413428068161010742
0.396034717559814453 0.180346205830574036 0.41524040699005127
0.495971173048019409 0.733378708362579346 0.0525765642523765564
0.637079536914825439 0.202389374375343323 0.779299616813659668
0.425556004047393799 0.178787842392921448 0.626387476921081543
0.420680254697799683 0.673382818698883057 0.158926859498023987
0.50275576114654541 0.599156975746154785 0.717885851860046387
0.480624139308929443 0.40060347318649292 0.565704166889190674
0.519682824611663818 0.262266665697097778 0.800931692123413086
0.646093308925628662 0.174819737672805786 0.687472760677337646
0.497005969285964966 0.395106256008148193 0.778464138507843018
0.598537743091583252 0.187063634395599365 0.560640454292297363
0.607902169227600098 0.250431746244430542 0.759572625160217285
0.513784825801849365 0.770268738269805908 0.10109846293926239
0.668716728687286377 0.300205647945404053 0.715598046779632568
0.413488209247589111 0.678153097629547119 0.610371410846710205
0.351133376359939575 0.576771080493927002 0.595319807529449463
0.367470294237136841 0.595798313617706299 0.304648786783218384
0.566017866134643555 0.367126613855361938 0.285640925168991089
0.361535131931304932 0.599465489387512207 0.340576231479644775
0.641318082809448242 0.16460689902305603 0.681768953800201416
0.508849561214447021 0.699876070022583008 0.069492340087890625
0.425210446119308472 0.184418290853500366 0.839299440383911133
0.402084648609161377 0.193944662809371948 0.108330711722373962
0.593410968780517578 0.19005151093006134 0.200331240892410278
0.504027366638183594 0.234896093606948853 0.876589059829711914
0.284707009792327881 0.158261120319366455 0.683846235275268555
0.459989041090011597 0.240430548787117004 0.506314873695373535
0.615023374557495117 0.262326568365097046 0.734414458274841309
0.502795100212097168 0.366617500782012939 0.894542872905731201
0.512263059616088867 0.754257082939147949 0.342138022184371948
0.58744359016418457 0.180227190256118774 0.28559798002243042
0.350649714469909668 0.615671753883361816 0.318660229444503784
0.511948108673095703 0.577588677406311035 0.111408472061157227
0.593571722507476807 0.334178060293197632 0.188886851072311401
0.445509433746337891 0.455092579126358032 0.876841962337493896
0.484460741281509399 0.55578535795211792 0.773771107196807861
0.370235711336135864 0.67554771900177002 0.284433484077453613
0.595456421375274658 0.343268543481826782 0.732974529266357422
0.594097435474395752 0.358974844217300415 0.737164318561553955
0.401012331247329712 0.376983970403671265 0.19397340714931488
0.469387590885162354 0.23030756413936615 0.802017629146575928
0.323284298181533813 0.739175260066986084 0.399189263582229614
0.328939050436019897 0.711068928241729736 0.344195455312728882
0.352856487035751343 0.622611701488494873 0.663999438285827637
0.493752032518386841 0.625291764736175537 0.699411511421203613
0.51353532075881958 0.718252658843994141 0.0758194401860237122
0.418685883283615112 0.59031909704208374 0.242550104856491089
0.423854738473892212 0.192233696579933167 0.104675523936748505
0.704546868801116943 0.189496949315071106 0.26192048192024231
0.366870492696762085 0.216553449630737305 0.139493837952613831
0.61851876974105835 0.28252074122428894 0.224877297878265381
0.533069610595703125 0.719954073429107666 0.118955045938491821
0.571884214878082275 0.350188940763473511 0.931351006031036377
0.388928115367889404 0.19095824658870697 0.0903182104229927063
0.508599460124969482 0.325392872095108032 0.6781960129737854
0.391257762908935547 0.300429880619049072 0.347830027341842651
0.64080125093460083 0.191816553473472595 0.361793071031570435
0.369993001222610474 0.196594282984733582 0.784201622009277344
0.483478575944900513 0.475526601076126099 0.819398462772369385
0.39197540283203125 0.808630764484405518 0.422047287225723267
0.585469603538513184 0.194969698786735535 0.617772102355957031
0.47462230920791626 0.158965006470680237 0.300444871187210083
0.53590315580368042 0.637447059154510498 0.0841275900602340698
0.376044094562530518 0.80125117301940918 0.463252991437911987
0.478135883808135986 0.624012649059295654 0.920588970184326172
0.497811287641525269 0.285635292530059814 0.736490130424499512
0.339384287595748901 0.622314691543579102 0.384919077157974243
0.571501195430755615 0.653411269187927246 0.0456352308392524719
0.471488267183303833 0.216240644454956055 0.83979344367980957
0.646045327186584473 0.246718227863311768 0.219081342220306396
0.566728949546813965 0.31439623236656189 0.386806249618530273
0.59593653678894043 0.207510232925415039 0.586017072200775146
0.32008439302444458 0.173450931906700134 0.392185747623443604
0.513651907444000244 0.582363903522491455 0.0254056304693222046
0.366784423589706421 0.75137019157409668 0.279196351766586304
0.394567579030990601 0.684687137603759766 0.223971158266067505
0.542058348655700684 0.151740550994873047 0.276826053857803345
0.503902852535247803 0.759601950645446777 0.124334961175918579
0.635290205478668213 0.170251861214637756 0.562286198139190674
0.493433177471160889 0.585398375988006592 0.17901650071144104
0.508656799793243408 0.159982413053512573 0.299943327903747559
0.555369794368743896 0.631171822547912598 0.117383018136024475
0.333496630191802979 0.64835965633392334 0.388879656791687012
0.467950105667114258 0.168109655380249023 0.6175956130027771
0.462390899658203125 0.680353820323944092 0.18358244001865387
0.459993213415145874 0.54655832052230835 0.974108994007110596
0.485257327556610107 0.344381093978881836 0.643456161022186279
0.491720527410507202 0.49337536096572876 0.46187901496887207
0.360598385334014893 0.531650781631469727 0.769023656845092773
0.480212360620498657 0.742440581321716309 0.407357007265090942
0.532565295696258545 0.609915316104888916 0.341905415058135986
0.49277845025062561 0.394465178251266479 0.915499210357666016
0.580998063087463379 0.2295369952917099 0.71172487735748291
0.575164139270782471 0.442554563283920288 0.704261541366577148
0.666022539138793945 0.325033456087112427 0.707870185375213623
0.466960132122039795 0.527425527572631836 0.851505637168884277
0.372044205665588379 0.822784602642059326 0.474974155426025391
0.50206834077835083 0.322498053312301636 0.722986340522766113
0.578274846076965332 0.681413471698760986 0.129062041640281677
0.507229268550872803 0.75842595100402832 0.181596353650093079
0.506367087364196777 0.381794273853302002 0.738131821155548096
0.615301787853240967 0.210536912083625793 0.315333008766174316
0.466985046863555908 0.204666882753372192 0.480966269969940186
0.562730789184570312 0.154761701822280884 0.259242922067642212
0.575686395168304443 0.165584266185760498 0.240629211068153381
0.659158468246459961 0.288957327604293823 0.738736987113952637
0.502806127071380615 0.148797512054443359 0.796331405639648438
0.407883495092391968 0.657995045185089111 0.715427994728088379
0.537281274795532227 0.479881942272186279 0.296553969383239746
0.468316704034805298 0.551799356937408447 0.244912490248680115
0.404204010963439941 0.45386841893196106 0.595449864864349365
0.571167886257171631 0.599024474620819092 0.264215856790542603
0.43696632981300354 0.69106215238571167 0.14114128053188324
0.37991681694984436 0.675945937633514404 0.26137128472328186
0.409749746322631836 0.217799186706542969 0.139870911836624146
0.462216556072235107 0.582216560840606689 0.127027228474617004
0.356884419918060303 0.490144431591033936 0.51271432638168335
0.377513468265533447 0.152072727680206299 0.322809606790542603
0.377889901399612427 0.343995600938796997 0.527358472347259521
0.355496644973754883 0.447932422161102295 0.487500190734863281
0.524242758750915527 0.147548675537109375 0.814511597156524658
0.584470093250274658 0.66583329439163208 0
0.585154056549072266 0.667650043964385986 0.00991868134588003159
0.446273237466812134 0.696792423725128174 0.102336950600147247
0.494135022163391113 0.162127941846847534 0.179863527417182922
0.409347891807556152 0.172732368111610413 0.647282302379608154
0.449533134698867798 0.65071946382522583 0.604961574077606201
0.470493286848068237 0.366079002618789673 0.800460398197174072
0.455151230096817017 0.598526477813720703 0.243796601891517639
0.565718591213226318 0.405417978763580322 0.719028711318969727
0.458819478750228882 0.242536529898643494 0.123976044356822968
0.478081822395324707 0.469259411096572876 0.16469787061214447
0.590466678142547607 0.18674720823764801 0.336220115423202515
0.335058599710464478 0.205949515104293823 0.123121358454227448
0.517042458057403564 0.15588715672492981 0.698591649532318115
0.394875645637512207 0.261001050472259521 0.605035722255706787
0.388098359107971191 0.466631144285202026 0.591241240501403809
0.558437883853912354 0.588958382606506348 0.25978735089302063
0.61547243595123291 0.165008947253227234 0.458159834146499634
0.321371614933013916 0.732121646404266357 0.377375006675720215
0.5188637375831604 0.475744545459747314 0.551048457622528076
0.331002354621887207 0.150787472724914551 0.327947437763214111
0.333017021417617798 0.154141664505004883 0.320108681917190552
0.388372480869293213 0.424113273620605469 0.695052564144134521
0.356332361698150635 0.330488383769989014 0.721844315528869629
0.622268736362457275 0.281995087862014771 0.236437499523162842
0.386149674654006958 0.154766082763671875 0.363902628421783447
0.560184001922607422 0.603080213069915771 0.0454701445996761322
0.509401619434356689 0.55765533447265625 0.590598046779632568
0.370985567569732666 0.61138838529586792 0.577456235885620117
0.61838531494140625 0.17374853789806366 0.365426093339920044
0.629739105701446533 0.587368905544281006 0.0847723037004470825
0.453005582094192505 0.61495053768157959 0.161445245146751404
0.373754948377609253 0.602926313877105713 0.379567146301269531
0.324829906225204468 0.153713241219520569 0.345270037651062012
0.490466475486755371 0.155661150813102722 0.682524144649505615
0.485881417989730835 0.563660681247711182 0.975101947784423828
0.485324382781982422 0.562364399433135986 0.989248991012573242
0.45891532301902771 0.510067105293273926 0.936240494251251221
0.424503862857818604 0.496765881776809692 0.659841954708099365
0.609022080898284912 0.417130649089813232 0.720090389251708984
0.643150091171264648 0.270409345626831055 0.685454607009887695
0.515481650829315186 0.74909132719039917 0.0482279956340789795
0.334609657526016235 0.232819393277168274 0.640217185020446777
0.508106589317321777 0.2412843257188797 0.769540131092071533
0.555797338485717773 0.365181982517242432 0.127902016043663025
0.382804781198501587 0.564495444297790527 0.323011398315429688
0.584966540336608887 0.714547872543334961 0.180016979575157166
0.625386834144592285 0.269661396741867065 0.361746042966842651
0.552666902542114258 0.278471499681472778 0.618109524250030518
0.336447328329086304 0.736695587635040283 0.34058225154876709
0.442232757806777954 0.152434378862380981 0.261139959096908569
0.503462433815002441 0.342185914516448975 0.688805282115936279
0.361014038324356079 0.516316056251525879 0.606159210205078125
0.537931144237518311 0.463304728269577026 0.175817742943763733
0.643395602703094482 0.1927318274974823 0.601208627223968506
0.425715237855911255 0.213430777192115784 0.601176977157592773
0.60498279333114624 0.249279320240020752 0.438173651695251465
0.444239526987075806 0.196610122919082642 0.141423776745796204
0.583831250667572021 0.759958863258361816 0.082691289484500885
0.352927595376968384 0.750521421432495117 0.340434283018112183
0.547003030776977539 0.633121192455291748 0.136079549789428711
0.635007917881011963 0.259948134422302246 0.843035519123077393
0.468348026275634766 0.157484278082847595 0.876509308815002441
0.438135743141174316 0.458012431859970093 0.602643668651580811
0.415052175521850586 0.666078269481658936 0.741560101509094238
0.563910782337188721 0.309399068355560303 0.115981929004192352
0.620390594005584717 0.288481950759887695 0.746051311492919922
0.544058799743652344 0.642966210842132568 0.229668214917182922
0.446276426315307617 0.168576344847679138 0.621588170528411865
0.627696037292480469 0.236653804779052734 0.204462930560112
0.628900706768035889 0.305960297584533691 0.752664029598236084
0.382233709096908569 0.68505394458770752 0.240656882524490356
0.333500564098358154 0.698316574096679688 0.396853476762771606
0.594821155071258545 0.589068830013275146 0.157792195677757263
0.316289454698562622 0.236378759145736694 0.660905897617340088
0.633053779602050781 0.369145661592483521 0.708418369293212891
0.387855201959609985 0.473498672246932983 0.819019138813018799
0.502226710319519043 0.608782291412353516 0.698749303817749023
0.469320774078369141 0.189148589968681335 0.606368362903594971
0.593934357166290283 0.175041183829307556 0.700360655784606934
0.391995787620544434 0.642828702926635742 0.596725344657897949
0.339653700590133667 0.193467393517494202 0.112791940569877625
0.341462165117263794 0.184681475162506104 0.106096804141998291
0.344575256109237671 0.193715855479240417 0.108629018068313599
0.506192862987518311 0.470046728849411011 0.565971493721008301
0.50409775972366333 0.782589256763458252 0.345922887325286865
0.537161111831665039 0.432889372110366821 0.263013601303100586
0.489962875843048096 0.735994458198547363 0.119094811379909515
0.590398967266082764 0.407941848039627075 0.705639183521270752
0.525728881359100342 0.42093193531036377 0.519365966320037842
0.354552417993545532 0.518024802207946777 0.732055068016052246
0.508745253086090088 0.2905597984790802 0.62581324577331543
0.587601840496063232 0.164744779467582703 0.460981041193008423
0.689130783081054688 0.252648591995239258 0.240850433707237244
0.40584099292755127 0.752587020397186279 0.340562820434570312
0.386972606182098389 0.381363868713378906 0.417866915464401245
0.508247792720794678 0.651141762733459473 0.257851362228393555
0.566168904304504395 0.591585338115692139 0.196580633521080017
0.50001150369644165 0.389569491147994995 0.66365516185760498
0.592173278331756592 0.187043845653533936 0.294468402862548828
0.600609302520751953 0.217294991016387939 0.703682184219360352
0.33762088418006897 0.183049067854881287 0.285856246948242188
0.495027333498001099 0.569786250591278076 0.0615826621651649475
0.488380104303359985 0.564577758312225342 0.908198833465576172
0.5258064866065979 0.726103663444519043 0.100542537868022919
0.508343040943145752 0.152980640530586243 0.824907243251800537
0.529760122299194336 0.583463788032531738 0.171889528632164001
0.494437813758850098 0.23621135950088501 0.840446233749389648
0.637944221496582031 0.201833739876747131 0.595443010330200195
0.468646794557571411 0.616239726543426514 0.919951379299163818
0.637177705764770508 0.221760749816894531 0.881409287452697754
0.589176535606384277 0.72372514009475708 0.0995489954948425293
0.406756877899169922 0.361618846654891968 0.621857166290283203
0.491750150918960571 0.333387017250061035 0.741883456707000732
0.490491420030593872 0.341364204883575439 0.747922360897064209
0.518543422222137451 0.454510688781738281 0.892494916915893555
0.410376578569412231 0.157977312803268433 0.679140746593475342
0.434216737747192383 0.148611739277839661 0.674260377883911133
0.497581839561462402 0.748866617679595947 0.168285936117172241
0.645134508609771729 0.158601894974708557 0.700998306274414062
0.519475042819976807 0.541967689990997314 0.251180589199066162
0.536821365356445312 0.387288331985473633 0.478076010942459106
0.4404945969581604 0.333110272884368896 0.608440577983856201
0.442746818065643311 0.663812398910522461 0.681345224380493164
0.416125655174255371 0.771867930889129639 0.299542129039764404
0.315327346324920654 0.228619903326034546 0.695829033851623535
0.443164795637130737 0.609299063682556152 0.517621159553527832
0.545588850975036621 0.328128218650817871 0.112049929797649384
0.377793729305267334 0.232384383678436279 0.197636798024177551
0.558192014694213867 0.151199638843536377 0.719021260738372803
0.352690428495407104 0.218945220112800598 0.179453521966934204
0.412208825349807739 0.677409172058105469 0.639955461025238037
0.414908260107040405 0.623732805252075195 0.206777617335319519
0.464009553194046021 0.50623774528503418 0.940149903297424316
0.469646245241165161 0.431977957487106323 0.580861806869506836
0.655721068382263184 0.238782644271850586 0.33810800313949585
0.397703945636749268 0.170037627220153809 0.260924786329269409
0.546294808387756348 0.154099926352500916 0.240633964538574219
0.351025879383087158 0.521669685840606689 0.5336264967918396
0.477902352809906006 0.514668643474578857 0.64055180549621582
0.44012877345085144 0.206511721014976501 0.599903523921966553
0.559316635131835938 0.42656320333480835 0.705153286457061768
0.539920330047607422 0.751865804195404053 0.0659962445497512817
0.546900331974029541 0.755234241485595703 0.0680055171251296997
0.412793904542922974 0.61970144510269165 0.795125842094421387
0.444785177707672119 0.187341853976249695 0.606501877307891846
0.609085440635681152 0.162971034646034241 0.842828989028930664
0.634021878242492676 0.173755601048469543 0.387571454048156738
0.486908286809921265 0.487846404314041138 0.696784317493438721
0.498932063579559326 0.379188477993011475 0.308855503797531128
0.508466124534606934 0.772087216377258301 0.342444151639938354
0.321387827396392822 0.627223968505859375 0.39640200138092041
0.57520371675491333 0.298845589160919189 0.642299115657806396
0.386425703763961792 0.202365070581436157 0.802226364612579346
0.470486313104629517 0.347373872995376587 0.114061705768108368
0.618663787841796875 0.227918848395347595 0.416557252407073975
0.427064329385757446 0.612586498260498047 0.818271517753601074
0.536977410316467285 0.647525370121002197 0.320397496223449707
0.502462208271026611 0.536358296871185303 0.617978036403656006
0.623749375343322754 0.225067421793937683 0.679981470108032227
0.464843302965164185 0.387760728597640991 0.643883407115936279
0.565339863300323486 0.707908809185028076 0.239547833800315857
0.538853704929351807 0.744539737701416016 0.260160177946090698
0.464415132999420166 0.528068780899047852 0.465468883514404297
0.49331936240196228 0.697309970855712891 0.437972724437713623
0.630621075630187988 0.23364277184009552 0.787005424499511719
0.544073104858398438 0.727529346942901611 0.259751051664352417
0.412717282772064209 0.780993640422821045 0.407746165990829468
0.556100904941558838 0.720901727676391602 0.199362620711326599
0.49829632043838501 0.17337353527545929 0.871365666389465332
0.356872737407684326 0.551539778709411621 0.741454839706420898
0.567563295364379883 0.661443471908569336 0.010770636610686779
0.583989381790161133 0.344381809234619141 0.163415402173995972
0.466159820556640625 0.60172426700592041 0.41240808367729187
0.519556939601898193 0.601219236850738525 0.29817730188369751
0.481627374887466431 0.149532750248908997 0.658619165420532227
0.427968055009841919 0.554276227951049805 0.883476316928863525
0.454378128051757812 0.353531897068023682 0.304470986127853394
0.574095308780670166 0.309971243143081665 0.938896834850311279
0.349362760782241821 0.302050292491912842 0.721482634544372559
0.59130561351776123 0.256595313549041748 0.470196038484573364
0.63376384973526001 0.338439673185348511 0.699471890926361084
0.330925166606903076 0.193485572934150696 0.716062605381011963
0.425023853778839111 0.624763906002044678 0.505193233489990234
0.432874381542205811 0.612360596656799316 0.504848897457122803
0.536691069602966309 0.279525458812713623 0.844103395938873291
0.352820068597793579 0.17397955060005188 0.105955049395561218
0.4414653480052948 0.719561278820037842 0.171499907970428467
0.682915985584259033 0.251861870288848877 0.281572788953781128
0.39064258337020874 0.408697545528411865 0.421139180660247803
0.36562502384185791 0.526765108108520508 0.639877140522003174
0.419643938541412354 0.203966006636619568 0.821122646331787109
0.621096134185791016 0.256821215152740479 0.205325007438659668
0.363103270530700684 0.529271304607391357 0.662078797817230225
0.413735926151275635 0.675440192222595215 0.698404908180236816
0.359738975763320923 0.375593721866607666 0.484140008687973022
0.413001418113708496 0.270442485809326172 0.155515044927597046
0.390272527933120728 0.664794743061065674 0.24723072350025177
0.657183825969696045 0.263828873634338379 0.323336690664291382
0.538029909133911133 0.647530317306518555 0.243927597999572754
0.382250159978866577 0.541772782802581787 0.370788604021072388
0.342117935419082642 0.780718505382537842 0.314900636672973633
0.433469504117965698 0.654262244701385498 0.578255534172058105
0.542376935482025146 0.342854857444763184 0.387336164712905884
0.557509839534759521 0.684808969497680664 0.194371402263641357
0.429153531789779663 0.197860598564147949 0.464362949132919312
0.46402403712272644 0.610774576663970947 0.933442533016204834
0.324064403772354126 0.241972118616104126 0.680787861347198486
0.358433723449707031 0.432099372148513794 0.472772657871246338
0.435333609580993652 0.447280824184417725 0.418879240751266479
0.421212285757064819 0.150729283690452576 0.38763892650604248
0.47895514965057373 0.684918403625488281 0.142372533679008484
0.639651000499725342 0.162201359868049622 0.553149640560150146
0.647990882396697998 0.190876811742782593 0.385461539030075073
0.583795905113220215 0.689299345016479492 0.128923580050468445
0.494967907667160034 0.604011237621307373 0.96212238073348999
0.591811895370483398 0.270436346530914307 0.643881678581237793
0.532473385334014893 0.200954824686050415 0.615437924861907959
0.435054540634155273 0.758946418762207031 0.209766969084739685
0.68313133716583252 0.162854909896850586 0.31017574667930603
0.620558023452758789 0.173222661018371582 0.580847978591918945
0.470464557409286499 0.374252587556838989 0.801948845386505127
0.518511652946472168 0.763026833534240723 0.0489409640431404114
0.350157231092453003 0.516723752021789551 0.581153810024261475
0.546914815902709961 0.181794747710227966 0.596116721630096436
0.541920661926269531 0.677689075469970703 0.238252580165863037
0.541817665100097656 0.153212398290634155 0.319977819919586182
0.521060347557067871 0.54230111837387085 0.331263482570648193
0.503634214401245117 0.480503112077713013 0.795461654663085938
0.414053618907928467 0.151837289333343506 0.359574109315872192
0.597993195056915283 0.351227432489395142 0.239142417907714844
0.316470444202423096 0.688413083553314209 0.408750802278518677
0.420292437076568604 0.186295822262763977 0.219863355159759521
0.33133968710899353 0.215221792459487915 0.662428438663482666
0.321914196014404297 0.252092361450195312 0.677073776721954346
0.49658358097076416 0.387608498334884644 0.76552659273147583
0.446137934923171997 0.657732129096984863 0.662833511829376221
0.457678705453872681 0.634473621845245361 0.760483145713806152
0.35159224271774292 0.181871339678764343 0.163741037249565125
0.343553423881530762 0.21100558340549469 0.16183038055896759
0.581596434116363525 0.588782072067260742 0.201888278126716614
0.631939947605133057 0.174758091568946838 0.66500389575958252
0.668855726718902588 0.242068842053413391 0.321637749671936035
0.452208876609802246 0.75311124324798584 0.176385655999183655
0.575461506843566895 0.691194713115692139 0.12574419379234314
0.533071458339691162 0.674684524536132812 0.305011630058288574
0.424422591924667358 0.535370290279388428 0.898894667625427246
0.461422592401504517 0.160834833979606628 0.627222955226898193
0.358204156160354614 0.45168691873550415 0.777202367782592773
0.384578853845596313 0.189721360802650452 0.22339293360710144
0.35117611289024353 0.193449229001998901 0.1114320307970047
0.403274625539779663 0.355112940073013306 0.547415852546691895
0.581918299198150635 0.448450952768325806 0.726312339305877686
0.525245368480682373 0.78170543909072876 0.352194756269454956
0.605679154396057129 0.250410884618759155 0.738670289516448975
0.501296639442443848 0.404607862234115601 0.30786547064781189
0.412764936685562134 0.676621079444885254 0.601364076137542725
0.45206412672996521 0.550368666648864746 0.858506143093109131
0.572729706764221191 0.303258895874023438 0.711625099182128906
0.36839449405670166 0.731923937797546387 0.276478826999664307
0.400621384382247925 0.546622157096862793 0.276189684867858887
0.645848751068115234 0.175820693373680115 0.560067415237426758
0.354108512401580811 0.486289083957672119 0.756849229335784912
0.344192743301391602 0.611101150512695312 0.335595846176147461
0.536783039569854736 0.172244295477867126 0.168712824583053589
0.378898113965988159 0.165542006492614746 0.394516855478286743
0.508411526679992676 0.154400929808616638 0.759278357028961182
0.627956628799438477 0.233489722013473511 0.760976970195770264
0.441142052412033081 0.626391172409057617 0.184834614396095276
0.46332627534866333 0.649140894412994385 0.694050729274749756
0.55358654260635376 0.480405896902084351 0.713523805141448975
0.421730071306228638 0.154798701405525208 0.815092682838439941
0.617564260959625244 0.325881302356719971 0.258596867322921753
0.368161499500274658 0.581419467926025391 0.320882618427276611
0.647124648094177246 0.175094380974769592 0.698454856872558594
0.597418308258056641 0.594040453433990479 0.0803762972354888916
0.464361608028411865 0.150612428784370422 0.413415282964706421
0.523550331592559814 0.601156175136566162 0.0886513814330101013
0.445063173770904541 0.644573569297790527 0.743701457977294922
0.526124298572540283 0.292320370674133301 0.689447641372680664
0.599627375602722168 0.60329824686050415 0.138481780886650085
0.438219428062438965 0.655352294445037842 0.722150862216949463
0.545854508876800537 0.470131576061248779 0.199747711420059204
0.525889813899993896 0.303069829940795898 0.656541526317596436
0.380510717630386353 0.19928334653377533 0.694781661033630371
0.467306792736053467 0.1644134521484375 0.445208936929702759
0.353444665670394897 0.183441638946533203 0.243659496307373047
0.513706803321838379 0.306541025638580322 0.902200520038604736
0.468527227640151978 0.63832700252532959 0.579512298107147217
0.352888792753219604 0.734483778476715088 0.383439570665359497
0.439518719911575317 0.223266839981079102 0.812271595001220703
0.576103508472442627 0.766684949398040771 0.0758059397339820862
0.441903114318847656 0.705252766609191895 0.161443948745727539
0.472602248191833496 0.354595154523849487 0.795121431350708008
0.584476947784423828 0.360092431306838989 0.259615898132324219
0.402576655149459839 0.331243216991424561 0.758763432502746582
0.338419079780578613 0.66502833366394043 0.340366780757904053
0.546152293682098389 0.20812523365020752 0.600809454917907715
0.467091292142868042 0.149243444204330444 0.639531970024108887
0.506189465522766113 0.407625168561935425 0.759819388389587402
0.522120535373687744 0.764413952827453613 0.32471892237663269
0.567810893058776855 0.156311988830566406 0.301256299018859863
0.362968593835830688 0.245624348521232605 0.323815196752548218
0.466005086898803711 0.38072088360786438 0.370548546314239502
0.440711647272109985 0.270304501056671143 0.765656948089599609
0.333906739950180054 0.728743433952331543 0.395265042781829834
0.571782112121582031 0.386935800313949585 0.262512415647506714
0.420271486043930054 0.730921149253845215 0.179155230522155762
0.567007303237915039 0.378722667694091797 0.144960477948188782
0.470416337251663208 0.303196758031845093 0.104563139379024506
0.479665935039520264 0.21327364444732666 0.867957413196563721
0.625046193599700928 0.160509034991264343 0.684828579425811768
0.419549673795700073 0.827036857604980469 0.32659614086151123
0.610717356204986572 0.288694649934768677 0.362818330526351929
0.565610349178314209 0.158163338899612427 0.853182196617126465
0.373960673809051514 0.656511127948760986 0.281776338815689087
0.385303348302841187 0.332174420356750488 0.522790968418121338
0.428718328475952148 0.183656468987464905 0.12035100907087326
0.342704445123672485 0.249479144811630249 0.620779216289520264
0.649617135524749756 0.221742346882820129 0.360026836395263672
0.576495349407196045 0.666093528270721436 0.000790548743680119514
0.648206412792205811 0.189078360795974731 0.58069843053817749
0.707174360752105713 0.207612112164497375 0.217716187238693237
0.70987623929977417 0.211973398923873901 0.232566505670547485
0.4603252112865448 0.526305496692657471 0.931029558181762695
0.515896260738372803 0.307706534862518311 0.658278703689575195
0.582643985748291016 0.666122913360595703 0.0289999209344387054
0.390104293823242188 0.802476227283477783 0.460666835308074951
0.452996104955673218 0.409043967723846436 0.888213276863098145
0.649986624717712402 0.194214731454849243 0.389322161674499512
0.304319322109222412 0.188921838998794556 0.681830286979675293
0.57235407829284668 0.377939909696578979 0.912084579467773438
0.388324141502380371 0.176114067435264587 0.096135355532169342
0.396879523992538452 0.18019866943359375 0.107910893857479095
0.581182897090911865 0.253878742456436157 0.419624298810958862
0.592163383960723877 0.264358729124069214 0.443398624658584595
0.567706108093261719 0.261419147253036499 0.727557539939880371
0.575700640678405762 0.148628681898117065 0.72060084342956543
0.597998321056365967 0.200686424970626831 0.317254036664962769
0.612518429756164551 0.209242567420005798 0.304852306842803955
0.615422368049621582 0.204299405217170715 0.301262170076370239
0.425729453563690186 0.600986003875732422 0.421186268329620361
0.425001263618469238 0.581342518329620361 0.186997160315513611
0.496114790439605713 0.731254935264587402 0.406278222799301147
0.493004947900772095 0.302270591259002686 0.76108241081237793
0.477857381105422974 0.31107136607170105 0.768373548984527588
0.477891623973846436 0.301271528005599976 0.764092803001403809
0.513009190559387207 0.456921637058258057 0.743142426013946533
0.557663440704345703 0.195977509021759033 0.740735948085784912
0.621584057807922363 0.606238663196563721 0.0603039376437664032
0.713209271430969238 0.247085899114608765 0.223456501960754395
0.567207634449005127 0.693861007690429688 0.140561610460281372
0.493181049823760986 0.475266307592391968 0.166883274912834167
0.553489983081817627 0.648391306400299072 0.0612774528563022614
0.558907926082611084 0.313167870044708252 0.695602357387542725
0.578809916973114014 0.173672527074813843 0.212647825479507446
0.3890857994556427 0.197234645485877991 0.719612836837768555
0.609940528869628906 0.327884107828140259 0.680991947650909424
0.547116577625274658 0.683539390563964844 0.258640944957733154
0.401344895362854004 0.808647990226745605 0.46462482213973999
0.38146623969078064 0.818517625331878662 0.456232696771621704
0.378121852874755859 0.82174605131149292 0.466245681047439575
0.397155970335006714 0.191841363906860352 0.633988261222839355
0.397953629493713379 0.670399844646453857 0.217738524079322815
0.506061792373657227 0.652622222900390625 0.410607129335403442
0.614668130874633789 0.251763641834259033 0.914811789989471436
0.511480450630187988 0.617996096611022949 0.0454567521810531616
0.504832208156585693 0.333261817693710327 0.718871057033538818
0.38159748911857605 0.628894150257110596 0.59493941068649292
0.468362897634506226 0.582183182239532471 0.159651562571525574
0.517923593521118164 0.36716693639755249 0.306766808032989502
0.533693432807922363 0.744650185108184814 0.202863410115242004
0.59934765100479126 0.720076799392700195 0.159217387437820435
0.628348588943481445 0.269301414489746094 0.322008252143859863
0.571619868278503418 0.264503538608551025 0.130875393748283386
0.537619233131408691 0.764305233955383301 0.124697811901569366
0.404039174318313599 0.660999119281768799 0.61930394172668457
0.63355785608291626 0.334431171417236328 0.763484179973602295
0.351559847593307495 0.604572951793670654 0.634616553783416748
0.486249864101409912 0.638137519359588623 0.1818246990442276
0.569979488849639893 0.422395169734954834 0.730064511299133301
0.51030808687210083 0.379597514867782593 0.932542741298675537
0.464602231979370117 0.59090036153793335 0.121707245707511902
0.559490382671356201 0.183833613991737366 0.585051655769348145
0.420260846614837646 0.592767715454101562 0.257734924554824829
0.452567428350448608 0.393937796354293823 0.643045485019683838
0.5396462082862854 0.235683634877204895 0.482181042432785034
0.488240182399749756 0.615192294120788574 0.981656849384307861
0.330574661493301392 0.733587682247161865 0.36588016152381897
0.522247254848480225 0.405214220285415649 0.932584702968597412
0.357490211725234985 0.616072773933410645 0.621528983116149902
0.412648051977157593 0.728998720645904541 0.186090722680091858
0.468297779560089111 0.686651766300201416 0.469079166650772095
0.590726256370544434 0.209833502769470215 0.657909572124481201
0.367842495441436768 0.823012888431549072 0.484758436679840088
0.294443637132644653 0.205100372433662415 0.678022623062133789
0.585782110691070557 0.586454093456268311 0.141116231679916382
0.419652551412582397 0.187885910272598267 0.446807980537414551
0.328736275434494019 0.239479079842567444 0.641883015632629395
0.515386283397674561 0.195686638355255127 0.618905365467071533
0.432014703750610352 0.398901164531707764 0.278647929430007935
0.497065097093582153 0.795564591884613037 0.374808937311172485
0.595143735408782959 0.304472506046295166 0.728620350360870361
0.49254155158996582 0.604532599449157715 0.577265143394470215
0.537486732006072998 0.685594856739044189 0.280522137880325317
0.352295666933059692 0.328137487173080444 0.658137977123260498
0.499863356351852417 0.16674824059009552 0.640863299369812012
0.490810215473175049 0.591870129108428955 0.199381798505783081
0.477871984243392944 0.531483829021453857 0.977923274040222168
0.59410327672958374 0.155576199293136597 0.839238524436950684
0.548779547214508057 0.151574090123176575 0.681645214557647705
0.47168046236038208 0.643567681312561035 0.621124148368835449
0.400297254323959351 0.306935369968414307 0.513847291469573975
0.413158982992172241 0.301173299551010132 0.528042435646057129
0.499459117650985718 0.158915907144546509 0.721895337104797363
0.57064741849899292 0.189332574605941772 0.463967382907867432
0.415262430906295776 0.176281258463859558 0.12252470850944519
0.34955325722694397 0.265777260065078735 0.280541390180587769
0.541845858097076416 0.730880200862884521 0.202674835920333862
0.627426683902740479 0.171326324343681335 0.780241668224334717
0.608909428119659424 0.343349933624267578 0.753185868263244629
0.408980339765548706 0.459985643625259399 0.304792165756225586
0.453419148921966553 0.436675280332565308 0.85578387975692749
0.453402340412139893 0.517610728740692139 0.403306692838668823
0.606059253215789795 0.263919711112976074 0.922579050064086914
0.3823891282081604 0.173874512314796448 0.0876691043376922607
0.382300227880477905 0.175297483801841736 0.0973231717944145203
0.412395179271697998 0.677210330963134766 0.659242212772369385
0.636648714542388916 0.244229346513748169 0.71517026424407959
0.574374079704284668 0.394585937261581421 0.717554867267608643
0.522757828235626221 0.589834809303283691 0.193662092089653015
0.50128406286239624 0.621211826801300049 0.0592448823153972626
0.561993837356567383 0.586822390556335449 0.163029700517654419
0.334840357303619385 0.636944293975830078 0.361693322658538818
0.571425557136535645 0.418927431106567383 0.700460195541381836
0.344682306051254272 0.716698586940765381 0.316666126251220703
0.436423122882843018 0.656084418296813965 0.741470932960510254
0.585814774036407471 0.7422981858253479 0.122201204299926758
0.487365633249282837 0.739622116088867188 0.440809845924377441
0.484469890594482422 0.201280191540718079 0.480027735233306885
0.485738217830657959 0.677582502365112305 0.101208530366420746
0.595132231712341309 0.74355393648147583 0.0975039750337600708
0.39266088604927063 0.711780011653900146 0.385157793760299683
0.401962876319885254 0.3521137535572052 0.226765528321266174
0.538203716278076172 0.153645724058151245 0.803239047527313232
0.561866402626037598 0.625804901123046875 0.14185449481010437
0.349549353122711182 0.246298789978027344 0.622695207595825195
0.532347738742828369 0.637280106544494629 0.183817744255065918
0.34544217586517334 0.213339686393737793 0.758789956569671631
0.425695627927780151 0.230414584279060364 0.476663053035736084
0.498315691947937012 0.578299582004547119 0.274727940559387207
0.550207853317260742 0.149433955550193787 0.699491798877716064
0.35182952880859375 0.602877914905548096 0.345802903175354004
0.39349365234375 0.819008827209472656 0.479573249816894531
0.421948075294494629 0.36322590708732605 0.154041245579719543
0.283610552549362183 0.17056843638420105 0.680979132652282715
0.336690127849578857 0.161335185170173645 0.388839960098266602
0.597181260585784912 0.291583091020584106 0.930297255516052246
0.506315350532531738 0.476249366998672485 0.723918795585632324
0.607021152973175049 0.349420040845870972 0.257181376218795776
0.62105172872543335 0.156940758228302002 0.391352295875549316
0.406850516796112061 0.159239977598190308 0.383229762315750122
0.449497044086456299 0.621518194675445557 0.172962173819541931
0.584174752235412598 0.589031994342803955 0.180186331272125244
0.604560375213623047 0.187776893377304077 0.349584728479385376
0.400490760803222656 0.160302326083183289 0.339929670095443726
0.441407710313796997 0.691005051136016846 0.125175684690475464
0.5782889723777771 0.358305782079696655 0.2858772873878479
0.392099112272262573 0.305350452661514282 0.754534006118774414
0.382936626672744751 0.307769715785980225 0.753178775310516357
0.404162168502807617 0.635959327220916748 0.226527631282806396
0.33021312952041626 0.720875978469848633 0.382763653993606567
0.440789699554443359 0.773991405963897705 0.270798981189727783
0.41720503568649292 0.67390817403793335 0.722394704818725586
0.467757314443588257 0.406615704298019409 0.327482432126998901
0.520186483860015869 0.300582617521286011 0.704375982284545898
0.358970850706100464 0.19272981584072113 0.413289070129394531
0.431999504566192627 0.157064124941825867 0.799937009811401367
0.454032540321350098 0.671922743320465088 0.122141338884830475
0.508474051952362061 0.28198552131652832 0.614242434501647949
0.536117851734161377 0.193292081356048584 0.600091159343719482
0.460150599479675293 0.147433280944824219 0.664229750633239746
0.513031661510467529 0.302373915910720825 0.523656785488128662
0.603737175464630127 0.310750514268875122 0.845622777938842773
0.496155202388763428 0.351007074117660522 0.878570258617401123
0.467998504638671875 0.73551100492477417 0.402668088674545288
0.505311131477355957 0.362940937280654907 0.719400405883789062
0.489830315113067627 0.581622421741485596 0.0625175759196281433
0.407072365283966064 0.756963372230529785 0.273832708597183228
0.478174358606338501 0.598017752170562744 0.257482349872589111
0.449207603931427002 0.153167217969894409 0.738540351390838623
0.356102317571640015 0.199762597680091858 0.218677595257759094
0.486143290996551514 0.715034008026123047 0.0466105639934539795
0.497786492109298706 0.2920399010181427 0.614002048969268799
0.335951387882232666 0.184287682175636292 0.154279157519340515
0.427948206663131714 0.516755521297454834 0.4368419349193573
0.571270346641540527 0.291006118059158325 0.418108254671096802
0.531030774116516113 0.668391525745391846 0.303477317094802856
0.596305489540100098 0.586630880832672119 0.121297463774681091
0.350171416997909546 0.740102827548980713 0.35890805721282959
0.381142795085906982 0.811085939407348633 0.482028067111968994
0.470238685607910156 0.706981182098388672 0.0666647776961326599
0.357601433992385864 0.392076820135116577 0.481213986873626709
0.536355137825012207 0.617246270179748535 0.0268541648983955383
0.402658641338348389 0.338496655225753784 0.243594929575920105
0.542233049869537354 0.162908971309661865 0.720418989658355713
0.594192206859588623 0.189219161868095398 0.640375912189483643
0.320462614297866821 0.743459463119506836 0.384144783020019531
0.345291227102279663 0.147618398070335388 0.337776303291320801
0.498858034610748291 0.628279626369476318 0.157718360424041748
0.476156353950500488 0.407490134239196777 0.914589583873748779
0.627182722091674805 0.194789484143257141 0.641513288021087646
0.621014654636383057 0.213640183210372925 0.460714042186737061
0.360967457294464111 0.229895338416099548 0.758436143398284912
0.348002612590789795 0.59277111291885376 0.637902677059173584
0.458324581384658813 0.531874656677246094 0.958182156085968018
0.694318592548370361 0.228065773844718933 0.268595010042190552
0.394878596067428589 0.209656134247779846 0.447776257991790771
0.482107490301132202 0.623884975910186768 0.58181995153427124
0.556900203227996826 0.737685024738311768 0.0806452482938766479
0.53136831521987915 0.20391419529914856 0.738190174102783203
0.625626325607299805 0.163667306303977966 0.217280387878417969
0.477520287036895752 0.772884130477905273 0.241598188877105713
0.375719755887985229 0.245759382843971252 0.339098632335662842
0.501558780670166016 0.435269862413406372 0.85355907678604126
0.60599440336227417 0.290087193250656128 0.189316496253013611
0.571453213691711426 0.587514698505401611 0.107273302972316742
0.547147393226623535 0.583738744258880615 0.094516947865486145
0.409321039915084839 0.6494598388671875 0.581568241119384766
0.41993635892868042 0.607293248176574707 0.812448203563690186
0.625216782093048096 0.295585721731185913 0.321655452251434326
0.527284026145935059 0.770514965057373047 0.347954273223876953
0.352584362030029297 0.28905409574508667 0.695871651172637939
0.502378404140472412 0.682844877243041992 0.41149979829788208
0.385165780782699585 0.596577346324920654 0.544973313808441162
0.441349834203720093 0.788392961025238037 0.309411555528640747
0.512570440769195557 0.578776895999908447 0.344968825578689575
0.500373542308807373 0.60238039493560791 0.680177092552185059
0.648165643215179443 0.251430481672286987 0.34392884373664856
0.44110029935836792 0.20264790952205658 0.835652768611907959
0.651663541793823242 0.355249494314193726 0.753554761409759521
0.64795529842376709 0.269396007061004639 0.260400384664535522
0.625307321548461914 0.282706290483474731 0.677129268646240234
0.427425950765609741 0.67868340015411377 0.142693504691123962
0.420074343681335449 0.751914441585540771 0.223511502146720886
0.505659162998199463 0.714788436889648438 0.0574627108871936798
0.596645534038543701 0.277254492044448853 0.17558443546295166
0.602323651313781738 0.16339169442653656 0.648955404758453369
0.416900873184204102 0.761668145656585693 0.243223235011100769
0.653210163116455078 0.25476035475730896 0.236543446779251099
0.499191880226135254 0.715820610523223877 0.420328378677368164
0.412502467632293701 0.580880999565124512 0.222992986440658569
0.447977334260940552 0.576439619064331055 0.162166014313697815
0.569585323333740234 0.611031413078308105 0.242003753781318665
0.354687720537185669 0.561631560325622559 0.58185499906539917
0.402185976505279541 0.557650625705718994 0.816443502902984619
0.497328460216522217 0.208680987358093262 0.485201656818389893
0.50225067138671875 0.702807307243347168 0.104070268571376801
0.371910154819488525 0.362158387899398804 0.422855764627456665
0.407743453979492188 0.499056518077850342 0.665377259254455566
0.472009569406509399 0.607048451900482178 0.959309995174407959
0.442612141370773315 0.747608602046966553 0.169368356466293335
0.519236266613006592 0.720435261726379395 0.0786477476358413696
0.59620213508605957 0.326398640871047974 0.219533100724220276
0.596813738346099854 0.605287432670593262 0.0482307001948356628
0.400166541337966919 0.164995789527893066 0.796724498271942139
0.391116529703140259 0.302071452140808105 0.322852671146392822
0.602482855319976807 0.365577459335327148 0.758973360061645508
0.58576047420501709 0.606340646743774414 0.179489120841026306
0.672687709331512451 0.1535138338804245 0.258512437343597412
0.348344117403030396 0.773927569389343262 0.311862409114837646
0.536038041114807129 0.295617103576660156 0.844374179840087891
0.576989293098449707 0.633018016815185547 0.0903186872601509094
0.509382307529449463 0.366146504878997803 0.11024031788110733
0.448811590671539307 0.453905761241912842 0.359283208847045898
0.576852738857269287 0.153306186199188232 0.750752627849578857
0.530693888664245605 0.39630010724067688 0.501350224018096924
0.545218050479888916 0.633641600608825684 0.137109488248825073
0.629339694976806641 0.282134056091308594 0.301277637481689453
0.602725386619567871 0.343690037727355957 0.280896574258804321
0.466421812772750854 0.162362813949584961 0.330415159463882446
0.61555248498916626 0.170760557055473328 0.602186262607574463
0.433343857526779175 0.750206172466278076 0.178220167756080627
0.411430060863494873 0.532947063446044922 0.468727678060531616
0.337287962436676025 0.148384645581245422 0.359044551849365234
0.47836574912071228 0.574485361576080322 0.979009449481964111
0.634596645832061768 0.247367739677429199 0.36340978741645813
0.492615342140197754 0.578555464744567871 0.941373467445373535
0.414301365613937378 0.222654998302459717 0.158650502562522888
0.326828032732009888 0.663592755794525146 0.362079322338104248
0.511530518531799316 0.420882821083068848 0.739641726016998291
0.487948238849639893 0.155669242143630981 0.417740821838378906
0.327055960893630981 0.19709073007106781 0.346236079931259155
0.349438369274139404 0.582875251770019531 0.662539839744567871
0.533439815044403076 0.72603297233581543 0.305650711059570312
0.582338809967041016 0.384793221950531006 0.211592108011245728
0.501812875270843506 0.243501648306846619 0.503495633602142334
0.458182305097579956 0.184474006295204163 0.866740882396697998
0.326239287853240967 0.635792553424835205 0.38774445652961731
0.369964957237243652 0.596866309642791748 0.755943000316619873
0.47519192099571228 0.637923359870910645 0.202009499073028564
0.504802942276000977 0.779675006866455078 0.365694016218185425
0.494026392698287964 0.750065743923187256 0.0577485561370849609
0.627904295921325684 0.233471572399139404 0.90302807092666626
0.578610658645629883 0.398553460836410522 0.705057024955749512
0.581688404083251953 0.616738080978393555 0.0329723283648490906
0.595297157764434814 0.61157989501953125 0.0392166897654533386
0.585415065288543701 0.608319461345672607 0.0421095900237560272
0.582246243953704834 0.605270206928253174 0.0518031679093837738
0.582347691059112549 0.623146533966064453 0.14110100269317627
0.4347819983959198 0.60906827449798584 0.817776143550872803
0.353231042623519897 0.552789568901062012 0.686953186988830566
0.531303107738494873 0.596777439117431641 0.319639086723327637
0.545880794525146484 0.291817128658294678 0.818162620067596436
0.623661279678344727 0.308557599782943726 0.300769418478012085
0.528272628784179688 0.633405923843383789 0.157740280032157898
0.404651731252670288 0.590475797653198242 0.221624001860618591
0.286612182855606079 0.194945633411407471 0.700068950653076172
0.411059916019439697 0.589757442474365234 0.506510376930236816
0.577091991901397705 0.620204269886016846 0.159874394536018372
0.609223902225494385 0.314606517553329468 0.74234086275100708
0.541908979415893555 0.189832091331481934 0.565570533275604248
0.533311724662780762 0.27776491641998291 0.798850536346435547
0.620828330516815186 0.178615838289260864 0.28845524787902832
0.36189618706703186 0.298783987760543823 0.193062782287597656
