ply
format ascii 1.0
element vertex 763
property float x
property float y
property float z
end_header
0.440859168767929077 0.400419801473617554 0.682498157024383545
0.380779147148132324 0.444057196378707886 0.621392965316772461
0.372040867805480957 0.432395279407501221 0.819880247116088867
0.406465440988540649 0.382298797369003296 0.936384201049804688
0.498844653367996216 0.714208781719207764 0.478653430938720703
0.374442040920257568 0.580980956554412842 0.400372773408889771
0.571173489093780518 0.420254975557327271 0.0647954791784286499
0.351921647787094116 0.433988243341445923 0.483549922704696655
0.33935999870300293 0.510503888130187988 0.580681204795837402
0.442582488059997559 0.542041242122650146 0.31783941388130188
0.633392453193664551 0.714307725429534912 0.122644126415252686
0.408339798450469971 0.388369321823120117 0.405789554119110107
0.549467563629150391 0.701911389827728271 0.170113548636436462
0.521032154560089111 0.807558834552764893 0.375579208135604858
0.38960576057434082 0.595509886741638184 0.675086498260498047
0.470849990844726562 0.314237713813781738 0.661895334720611572
0.413243710994720459 0.591826558113098145 0.900212287902832031
0.389010697603225708 0.476122558116912842 0.846999406814575195
0.412407875061035156 0.532600522041320801 0.255835533142089844
0.383655279874801636 0.451329588890075684 0.696318209171295166
0.398531436920166016 0.526868462562561035 0.319049328565597534
0.443937629461288452 0.624166488647460938 0.375737875699996948
0.52479398250579834 0.325047671794891357 0.679053544998168945
0.344375193119049072 0.464090704917907715 0.894559204578399658
0.608917415142059326 0.713119268417358398 0.144643485546112061
0.42159271240234375 0.455602169036865234 0.306128799915313721
0.483841001987457275 0.756456971168518066 0.483678996562957764
0.448010176420211792 0.438105881214141846 0.183060795068740845
0.573253214359283447 0.20680701732635498 0.341938495635986328
0.404028177261352539 0.388985276222229004 0.725988388061523438
0.388819128274917603 0.434975028038024902 0.585333347320556641
0.385211795568466187 0.563695192337036133 0.884916841983795166
0.431677043437957764 0.363851040601730347 0.742565274238586426
0.421568840742111206 0.709238231182098389 0.501332700252532959
0.413407891988754272 0.594072639942169189 0.818648219108581543
0.38483467698097229 0.441632300615310669 0.48070332407951355
0.427529811859130859 0.391882389783859253 0.322899967432022095
0.357336521148681641 0.514507889747619629 0.481915324926376343
0.360845059156417847 0.500786960124969482 0.540208101272583008
0.573859751224517822 0.570282101631164551 0.0688809752464294434
0.566426694393157959 0.811003327369689941 0.307213872671127319
0.403048038482666016 0.479540348052978516 0.982526957988739014
0.36084514856338501 0.398272573947906494 0.479711949825286865
0.373585283756256104 0.395865023136138916 0.418223679065704346
0.523499131202697754 0.291509091854095459 0.594556152820587158
0.402354836463928223 0.424108833074569702 0.442025899887084961
0.366795539855957031 0.587463438510894775 0.555382013320922852
0.360388994216918945 0.562074542045593262 0.976576507091522217
0.4007892906665802 0.49428945779800415 0.64335024356842041
0.386456966400146484 0.522614359855651855 0.782316505908966064
0.382760673761367798 0.487205356359481812 0.603658795356750488
0.403106808662414551 0.500586271286010742 0.660478353500366211
0.370365828275680542 0.405175566673278809 0.380639225244522095
0.416261047124862671 0.541724026203155518 0.745499849319458008
0.430858701467514038 0.635463953018188477 0.38069528341293335
0.375721275806427002 0.527171730995178223 0.921038806438446045
0.369225442409515381 0.453087061643600464 0.416438162326812744
0.398531526327133179 0.581972360610961914 0.832417547702789307
0.383456945419311523 0.512060582637786865 0.486059069633483887
0.539106667041778564 0.195375487208366394 0.41627967357635498
0.437519222497940063 0.578638315200805664 0.219874247908592224
0.406465440988540649 0.392507612705230713 0.300587326288223267
0.470781803131103516 0.53381037712097168 0.157501697540283203
0.46287110447883606 0.544222891330718994 0.18837110698223114
0.535392105579376221 0.294298112392425537 0.613597512245178223
0.422309130430221558 0.392485737800598145 0.837544798851013184
0.40011829137802124 0.51379704475402832 0.417846769094467163
0.507777929306030273 0.771141409873962402 0.388670265674591064
0.378436565399169922 0.382958352565765381 0.645014941692352295
0.368878304958343506 0.449511855840682983 0.375717759132385254
0.393671900033950806 0.492754578590393066 0.682028293609619141
0.477506965398788452 0.616709768772125244 0.813714981079101562
0.388960957527160645 0.437094509601593018 0.504605472087860107
0.371754318475723267 0.486701697111129761 0.80024874210357666
0.623657464981079102 0.594802200794219971 0.00817359890788793564
0.510211706161499023 0.544603466987609863 0.121154636144638062
0.374792665243148804 0.57947927713394165 0.776310086250305176
0.433213114738464355 0.732676923274993896 0.498554974794387817
0.385363727807998657 0.611661732196807861 0.500538527965545654
0.447206676006317139 0.423948138952255249 0.732607722282409668
0.595888972282409668 0.5848846435546875 0.0329838581383228302
0.347968250513076782 0.483726620674133301 0.868904411792755127
0.583801388740539551 0.161549568176269531 0.2858772873878479
0.457482188940048218 0.554735183715820312 0.204998239874839783
0.430296599864959717 0.578694939613342285 0.28136250376701355
0.457044303417205811 0.567032992839813232 0.70272672176361084
0.381473422050476074 0.473995864391326904 0.796921312808990479
0.353135526180267334 0.542796969413757324 0.501153707504272461
0.504273712635040283 0.55686795711517334 0.1484689861536026
0.382663518190383911 0.440343648195266724 0.518390178680419922
0.386194080114364624 0.545131921768188477 0.838386893272399902
0.448687553405761719 0.535032570362091064 0.162512525916099548
0.623708665370941162 0.835845530033111572 0.281178802251815796
0.38523942232131958 0.382350564002990723 0.685902655124664307
0.540784597396850586 0.218019098043441772 0.400372773408889771
0.361192286014556885 0.52349621057510376 0.441982954740524292
0.509859681129455566 0.308374881744384766 0.713879823684692383
0.330328404903411865 0.429789155721664429 0.924410998821258545
0.375721335411071777 0.533732712268829346 0.74212723970413208
0.410878509283065796 0.514049172401428223 0.323437362909317017
0.434628188610076904 0.445909261703491211 0.255577176809310913
0.419344156980514526 0.506145119667053223 0.915564000606536865
0.421318084001541138 0.547438502311706543 0.73895716667175293
0.4044819176197052 0.412320911884307861 0.824915170669555664
0.470040738582611084 0.748324990272521973 0.474633783102035522
0.489771932363510132 0.410647183656692505 0.736268162727355957
0.461435943841934204 0.690402030944824219 0.322322249412536621
0.46732252836227417 0.370667815208435059 0.759527444839477539
0.359927743673324585 0.512419342994689941 0.480872273445129395
0.437685638666152954 0.573615014553070068 0.702078163623809814
0.404715180397033691 0.417577743530273438 0.681198418140411377
0.434540092945098877 0.525468409061431885 0.280371129512786865
0.442948877811431885 0.577440619468688965 0.223345577716827393
0.40845721960067749 0.655363619327545166 0.437721550464630127
0.548446953296661377 0.419263601303100586 0.0823324546217918396
0.363820344209671021 0.508583724498748779 0.860914647579193115
0.441667705774307251 0.514477550983428955 0.348741650581359863
0.396548002958297729 0.487297087907791138 0.869088828563690186
0.35092771053314209 0.48174324631690979 0.761197388172149658
0.465969741344451904 0.688582181930541992 0.315677136182785034
0.387525260448455811 0.526570022106170654 0.55865478515625
0.443259268999099731 0.587618887424468994 0.747136354446411133
0.526466608047485352 0.410338163375854492 0.087653331458568573
0.345804065465927124 0.449282020330429077 0.991828322410583496
0.367985665798187256 0.541446566581726074 0.560877859592437744
0.56514132022857666 0.189331039786338806 0.416041463613510132
0.391490012407302856 0.3989410400390625 0.780756533145904541
0.478254407644271851 0.274964302778244019 0.620204925537109375
0.406465440988540649 0.525955557823181152 0.280080109834671021
0.608817040920257568 0.428783893585205078 0.0346267297863960266
0.51853257417678833 0.427197664976119995 0.0914457067847251892
0.368993639945983887 0.484123796224594116 0.844076693058013916
0.621746361255645752 0.586868882179260254 0.0106164421886205673
0.463301748037338257 0.409605979919433594 0.180436477065086365
0.556076467037200928 0.260584115982055664 0.582853734493255615
0.357113867998123169 0.474801331758499146 0.75971454381942749
0.378292739391326904 0.491062015295028687 0.983023226261138916
0.472933679819107056 0.312998205423355103 0.701862871646881104
0.449110209941864014 0.374843835830688477 0.695284545421600342
0.421341747045516968 0.680091977119445801 0.63867872953414917
0.547366797924041748 0.238224878907203674 0.57425987720489502
0.482071846723556519 0.735630393028259277 0.494985282421112061
0.423834353685379028 0.607694685459136963 0.724090456962585449
0.41439935564994812 0.423636555671691895 0.829254031181335449
0.42352333664894104 0.519914329051971436 0.280470669269561768
0.35291755199432373 0.492652982473373413 0.757401347160339355
0.389725267887115479 0.415051370859146118 0.479711949825286865
0.375721365213394165 0.594235599040985107 0.798063099384307861
0.380085021257400513 0.432552158832550049 0.856765389442443848
0.366795539855957031 0.538117527961730957 0.900211930274963379
0.539219915866851807 0.556520402431488037 0.0891386345028877258
0.562681257724761963 0.230534180998802185 0.539613008499145508
0.54705810546875 0.272846132516860962 0.600833892822265625
0.591326534748077393 0.177616685628890991 0.318904221057891846
0.42411881685256958 0.411373347043991089 0.670888245105743408
0.403851777315139771 0.39425542950630188 0.696934640407562256
0.439393311738967896 0.564058065414428711 0.279379755258560181
0.478046327829360962 0.361543476581573486 0.684440970420837402
0.354507863521575928 0.531941771507263184 0.699388742446899414
0.428916215896606445 0.530525326728820801 0.220410525798797607
0.477305740118026733 0.722187936305999756 0.441033750772476196
0.564241230487823486 0.237773820757865906 0.560439944267272949
0.37744981050491333 0.393050074577331543 0.399809360504150391
0.441176146268844604 0.603957056999206543 0.817897498607635498
0.475271821022033691 0.619950473308563232 0.379570692777633667
0.421826183795928955 0.609341800212860107 0.498656690120697021
0.483902186155319214 0.282402068376541138 0.599084317684173584
0.399920612573623657 0.52458721399307251 0.656044721603393555
0.423208296298980713 0.456291794776916504 0.3408680260181427
0.354935407638549805 0.425688475370407104 0.54216235876083374
0.528283417224884033 0.312259137630462646 0.694717824459075928
0.406831055879592896 0.401808500289916992 0.798956036567687988
0.399040400981903076 0.404387593269348145 0.621532320976257324
0.383655279874801636 0.41118013858795166 0.816196143627166748
0.491566091775894165 0.667199492454528809 0.22140657901763916
0.534400701522827148 0.203587010502815247 0.460868924856185913
0.426300913095474243 0.365582644939422607 0.742723286151885986
0.378092736005783081 0.467658251523971558 0.685236930847167969
0.408448934555053711 0.610952854156494141 0.796068847179412842
0.401506721973419189 0.41002202033996582 0.815913975238800049
0.382266849279403687 0.5366860032081604 0.723441600799560547
0.381870150566101074 0.539123058319091797 0.362978309392929077
0.486199498176574707 0.39653351902961731 0.139939993619918823
0.384448736906051636 0.548072636127471924 0.495878010988235474
0.38043212890625 0.539342999458312988 0.936510264873504639
0.449810147285461426 0.684796571731567383 0.52017521858215332
0.41465526819229126 0.417280077934265137 0.416240185499191284
0.36877906322479248 0.578239977359771729 0.699432671070098877
0.569309830665588379 0.170919865369796753 0.28632199764251709
0.333121836185455322 0.508520364761352539 0.623515069484710693
0.545627355575561523 0.219936072826385498 0.384221792221069336
0.388663500547409058 0.391788601875305176 0.713764309883117676
0.475060403347015381 0.661249637603759766 0.320040732622146606
0.591902256011962891 0.583756327629089355 0.0649535655975341797
0.587359488010406494 0.685646116733551025 0.146843701601028442
0.341392248868942261 0.431163936853408813 0.698310792446136475
0.556929349899291992 0.694968700408935547 0.165625914931297302
0.56287384033203125 0.712657392024993896 0.167312175035476685
0.420349597930908203 0.53728175163269043 0.219041153788566589
0.489771932363510132 0.75889664888381958 0.401997685432434082
0.393572717905044556 0.518775224685668945 0.780210614204406738
0.382501184940338135 0.521806955337524414 0.694337129592895508
0.47003626823425293 0.559139370918273926 0.132969826459884644
0.490764081478118896 0.760522961616516113 0.485910952091217041
0.552556395530700684 0.413067728281021118 0.0726029351353645325
0.339026749134063721 0.403028577566146851 0.643326878547668457
0.399213969707489014 0.425424337387084961 0.455215901136398315
0.358988076448440552 0.565049469470977783 0.741696059703826904
0.458441287279129028 0.65735018253326416 0.435380727052688599
0.356736421585083008 0.432156085968017578 0.438058853149414062
0.373354196548461914 0.527364134788513184 0.820695817470550537
0.507622838020324707 0.234321862459182739 0.584837615489959717
0.357728451490402222 0.442593514919281006 0.456842124462127686
0.417698055505752563 0.448024213314056396 0.724296271800994873
0.38593629002571106 0.544890165328979492 0.705642461776733398
0.355825692415237427 0.4072723388671875 0.479062169790267944
0.392580956220626831 0.452158182859420776 0.421640127897262573
0.36344456672668457 0.398850500583648682 0.457199156284332275
0.441815793514251709 0.443287074565887451 0.214519724249839783
0.376498520374298096 0.431235432624816895 0.341065704822540283
0.534835278987884521 0.273476541042327881 0.638705670833587646
0.591723203659057617 0.206261172890663147 0.338447034358978271
0.461952149868011475 0.311163038015365601 0.679377973079681396
0.589777708053588867 0.599760651588439941 0.0475619174540042877
0.362038671970367432 0.444057196378707886 0.823849797248840332
0.364971458911895752 0.5455780029296875 0.741424202919006348
0.379995733499526978 0.378448963165283203 0.916079699993133545
0.54927748441696167 0.191756859421730042 0.342902868986129761
0.396106481552124023 0.585876762866973877 0.676077902317047119
0.361215591430664062 0.578934848308563232 0.672897100448608398
0.588946282863616943 0.159425944089889526 0.281471163034439087
0.583800017833709717 0.435860246419906616 0.0497527308762073517
0.392116069793701172 0.486503690481185913 0.978187143802642822
0.447127461433410645 0.385069996118545532 0.758710324764251709
0.397539675235748291 0.442668706178665161 0.620103776454925537
0.38484540581703186 0.573975682258605957 0.83554840087890625
0.348745822906494141 0.413607299327850342 0.540208101272583008
0.438102185726165771 0.716768860816955566 0.562027573585510254
0.351080238819122314 0.59252166748046875 0.952279031276702881
0.537128210067749023 0.262369126081466675 0.519558250904083252
0.433478593826293945 0.570682406425476074 0.20713689923286438
0.352078497409820557 0.43761056661605835 0.479414045810699463
0.398531526327133179 0.559328436851501465 0.878195345401763916
0.386018365621566772 0.517411470413208008 0.800442516803741455
0.387423932552337646 0.421891152858734131 0.746036231517791748
0.424481868743896484 0.429181188344955444 0.736503839492797852
0.382663518190383911 0.594229578971862793 0.518168449401855469
0.480846792459487915 0.715134024620056152 0.460075676441192627
0.571571409702301025 0.437709182500839233 0.0602205283939838409
0.429275542497634888 0.561011791229248047 0.700190901756286621
0.57181394100189209 0.163219437003135681 0.296428143978118896
0.518292665481567383 0.781745791435241699 0.367314428091049194
0.431259334087371826 0.592818737030029297 0.815962255001068115
0.354036390781402588 0.394744277000427246 0.89311826229095459
0.466827720403671265 0.35192406177520752 0.685895085334777832
0.640780329704284668 0.606473982334136963 0.0086328946053981781
0.412415832281112671 0.508919477462768555 0.760495543479919434
0.586963534355163574 0.1624012291431427 0.284779876470565796
0.497706025838851929 0.687034666538238525 0.258894979953765869
0.368775725364685059 0.402993768453598022 0.973205149173736572
0.536384224891662598 0.437844842672348022 0.0873628631234169006
0.603927135467529297 0.436123102903366089 0.0304513107985258102
0.522825241088867188 0.235309377312660217 0.467384099960327148
0.483160465955734253 0.589510321617126465 0.79610443115234375
0.40051501989364624 0.545995652675628662 0.671360135078430176
0.383823603391647339 0.394400298595428467 0.437066733837127686
0.472096085548400879 0.610897481441497803 0.788144707679748535
0.463599622249603271 0.736051619052886963 0.515411376953125
0.473444372415542603 0.354700833559036255 0.738855719566345215
0.378968328237533569 0.404346853494644165 0.499547123908996582
0.439173758029937744 0.411155402660369873 0.759624838829040527
0.365980982780456543 0.449416995048522949 0.640533208847045898
0.363007992506027222 0.404234439134597778 0.838724017143249512
0.460416644811630249 0.654306948184967041 0.304822564125061035
0.574096083641052246 0.834617197513580322 0.326681643724441528
0.45483669638633728 0.318303704261779785 0.680381715297698975
0.381770968437194824 0.445062160491943359 0.457864373922348022
0.432250708341598511 0.407597810029983521 0.338634967803955078
0.621673941612243652 0.718481957912445068 0.129893496632575989
0.436217725276947021 0.576498091220855713 0.354159623384475708
0.388004392385482788 0.517813980579376221 0.580870568752288818
0.522977948188781738 0.224186986684799194 0.466680914163589478
0.398371994495391846 0.578486979007720947 0.614952206611633301
0.439923107624053955 0.643110275268554688 0.362476497888565063
0.598630726337432861 0.192188948392868042 0.333925783634185791
0.423094570636749268 0.584279537200927734 0.820634543895721436
0.461606740951538086 0.717575669288635254 0.53536379337310791
0.427012234926223755 0.510504245758056641 0.835536003112792969
0.424074888229370117 0.382568597793579102 0.687938988208770752
0.580638766288757324 0.592818677425384521 0.0466275736689567566
0.417374849319458008 0.572823584079742432 0.817897498607635498
0.550313651561737061 0.56756967306137085 0.0845352187752723694
0.46319282054901123 0.440090149641036987 0.180776849389076233
0.481135457754135132 0.704975664615631104 0.258254915475845337
0.461844027042388916 0.589636147022247314 0.80273747444152832
0.349426507949829102 0.546360254287719727 0.917647480964660645
0.394267022609710693 0.402258098125457764 0.705691516399383545
0.571094632148742676 0.589753270149230957 0.0509087741374969482
0.520516097545623779 0.258183509111404419 0.482439398765563965
0.366678714752197266 0.402006924152374268 0.538066625595092773
0.462847411632537842 0.680091977119445801 0.281561553478240967
0.392085075378417969 0.548566102981567383 0.479191899299621582
0.505828857421875 0.294536739587783813 0.701664865016937256
0.345554172992706299 0.392486482858657837 0.661201894283294678
0.343193739652633667 0.409555226564407349 0.923349857330322266
0.501673042774200439 0.755862295627593994 0.405501484870910645
0.443371683359146118 0.407084435224533081 0.24466782808303833
0.496713876724243164 0.323064148426055908 0.740308642387390137
0.44177672266960144 0.678698301315307617 0.355307668447494507
0.407937943935394287 0.605414688587188721 0.921038806438446045
0.48322632908821106 0.690698921680450439 0.281809538602828979
0.424563348293304443 0.408232420682907104 0.219874992966651917
0.461158961057662964 0.441271662712097168 0.197985842823982239
0.345674663782119751 0.429878324270248413 0.622523665428161621
0.52378535270690918 0.686197936534881592 0.225984364748001099
0.390597522258758545 0.446888744831085205 0.439050227403640747
0.434631675481796265 0.732642710208892822 0.541602551937103271
0.34790802001953125 0.429383248090744019 0.978917121887207031
0.339818120002746582 0.527364134788513184 0.619548797607421875
0.406536281108856201 0.448430866003036499 0.740541040897369385
0.59307628870010376 0.199095755815505981 0.360702455043792725
0.381558835506439209 0.514650464057922363 0.443116873502731323
0.339026749134063721 0.48809051513671875 0.720805466175079346
0.438201993703842163 0.739262521266937256 0.501934468746185303
0.356066733598709106 0.48699989914894104 0.781500697135925293
0.429026812314987183 0.405855059623718262 0.205038070678710938
0.541621029376983643 0.19810408353805542 0.460233807563781738
0.366795599460601807 0.376717954874038696 0.661201894283294678
0.36917579174041748 0.391971200704574585 0.699808299541473389
0.436417818069458008 0.410338133573532104 0.351548463106155396
0.490764081478118896 0.322072029113769531 0.740587055683135986
0.426300138235092163 0.69615095853805542 0.499591648578643799
0.394941508769989014 0.393562823534011841 0.343842923641204834
0.378050267696380615 0.569605529308319092 0.887777805328369141
0.409165024757385254 0.553148388862609863 0.265494763851165771
0.380679994821548462 0.586868882179260254 0.539267361164093018
0.390865296125411987 0.365613728761672974 0.884840250015258789
0.380662262439727783 0.437114506959915161 0.858369052410125732
0.559670090675354004 0.237278059124946594 0.453613430261611938
0.486104428768157959 0.768020868301391602 0.422190725803375244
0.496126830577850342 0.267118245363235474 0.540795803070068359
0.424316644668579102 0.434138834476470947 0.741017460823059082
0.390121489763259888 0.448405355215072632 0.762173116207122803
0.396515309810638428 0.367801934480667114 0.838724017143249512
0.389656692743301392 0.390502989292144775 0.993436038494110107
0.494533151388168335 0.376412689685821533 0.67857670783996582
0.40302082896232605 0.547295629978179932 0.855870962142944336
0.63607478141784668 0.592422783374786377 0.00641181226819753647
0.378795772790908813 0.391235709190368652 0.978560090065002441
0.361189126968383789 0.401411563158035278 0.438178867101669312
0.480984717607498169 0.663473129272460938 0.242663353681564331
0.438297063112258911 0.67513352632522583 0.601697146892547607
0.441802352666854858 0.683861315250396729 0.558059751987457275
0.443553358316421509 0.52880096435546875 0.167825981974601746
0.45894390344619751 0.401866674423217773 0.165522858500480652
0.384767621755599976 0.453974038362503052 0.647384881973266602
0.412415862083435059 0.388232380151748657 0.297688215970993042
0.330135852098464966 0.448559314012527466 0.901729702949523926
0.640682995319366455 0.713812470436096191 0.105823978781700134
0.352911144495010376 0.439098000526428223 0.722942173480987549
0.430207997560501099 0.710788130760192871 0.579210877418518066
0.395556241273880005 0.427243679761886597 0.500539243221282959
0.507622838020324707 0.687516748905181885 0.206716179847717285
0.416204303503036499 0.377411007881164551 0.745216727256774902
0.384051978588104248 0.404324054718017578 0.58630901575088501
0.573011040687561035 0.214963749051094055 0.479828894138336182
0.365252494812011719 0.521114528179168701 0.425562947988510132
0.505640089511871338 0.790126383304595947 0.396624088287353516
0.422333121299743652 0.601633250713348389 0.48070409893989563
0.491207301616668701 0.767167627811431885 0.475409328937530518
0.490772753953933716 0.279823541641235352 0.556745767593383789
0.37997552752494812 0.571426928043365479 0.366499751806259155
0.41531294584274292 0.590736031532287598 0.964676201343536377
0.345914751291275024 0.411130815744400024 0.579977631568908691
0.579029440879821777 0.163912415504455566 0.29507148265838623
0.350901305675506592 0.464490503072738647 0.716659486293792725
0.502112925052642822 0.558901309967041016 0.114997141063213348
0.456548154354095459 0.404034852981567383 0.202915966510772705
0.35112839937210083 0.436426430940628052 0.618556678295135498
0.503656744956970215 0.360867232084274292 0.67676997184753418
0.437545984983444214 0.46349489688873291 0.862815201282501221
0.604814410209655762 0.43933415412902832 0.0338659249246120453
0.370345056056976318 0.542873919010162354 0.717089176177978516
0.364117890596389771 0.56012040376663208 0.78323662281036377
0.395073831081390381 0.582217037677764893 0.832040250301361084
0.395357906818389893 0.590311884880065918 0.645532429218292236
0.36084514856338501 0.587744832038879395 0.904656171798706055
0.409866601228713989 0.61221778392791748 0.439235389232635498
0.44018477201461792 0.413878142833709717 0.700871467590332031
0.435226351022720337 0.390579164028167725 0.302189052104949951
0.381176948547363281 0.433345764875411987 0.735915124416351318
0.41996079683303833 0.516105115413665771 0.386210650205612183
0.553210914134979248 0.184140264987945557 0.319515407085418701
0.602831661701202393 0.598770022392272949 0.0451902337372303009
0.395868659019470215 0.386126101016998291 0.37984350323677063
0.459418922662734985 0.394764989614486694 0.75723719596862793
0.396368891000747681 0.415789246559143066 0.457399070262908936
0.39577186107635498 0.434138834476470947 0.499547123908996582
0.400675445795059204 0.653087437152862549 0.474455744028091431
0.336490273475646973 0.406370371580123901 0.659619748592376709
0.425725966691970825 0.691199660301208496 0.54093247652053833
0.42392006516456604 0.5841217041015625 0.325743049383163452
0.521508216857910156 0.678109169006347656 0.205746695399284363
0.418455809354782104 0.42972642183303833 0.937898337841033936
0.35921025276184082 0.5352974534034729 0.620540142059326172
0.392751634120941162 0.435889303684234619 0.523220241069793701
0.441219598054885864 0.619595646858215332 0.803695321083068848
0.574394881725311279 0.188137650489807129 0.307307004928588867
0.407546132802963257 0.602735519409179688 0.479711949825286865
0.454068928956985474 0.665211260318756104 0.418620765209197998
0.364255815744400024 0.507727324962615967 0.916476726531982422
0.370266735553741455 0.504162490367889404 0.819880247116088867
0.442297309637069702 0.434138864278793335 0.181196793913841248
0.532907605171203613 0.201079279184341431 0.399380624294281006
0.493739724159240723 0.678109169006347656 0.209301769733428955
0.358331531286239624 0.397965937852859497 0.518786966800689697
0.433767199516296387 0.433346331119537354 0.764075696468353271
0.431268364191055298 0.53728175163269043 0.382454752922058105
0.483292490243911743 0.410771220922470093 0.126110240817070007
0.510922908782958984 0.245707809925079346 0.481695473194122314
0.455838024616241455 0.584091842174530029 0.178596720099449158
0.400493234395980835 0.61923062801361084 0.441649407148361206
0.480508476495742798 0.658501863479614258 0.260535955429077148
0.371520280838012695 0.400394171476364136 0.559051871299743652
0.432647854089736938 0.521102368831634521 0.260238438844680786
0.578118801116943359 0.813611328601837158 0.295871853828430176
0.397341370582580566 0.598851382732391357 0.860664308071136475
0.415787816047668457 0.595471620559692383 0.864176273345947266
0.406029641628265381 0.492651849985122681 0.662935495376586914
0.39302942156791687 0.452346533536911011 0.759977042675018311
0.376994013786315918 0.397458344697952271 0.459877550601959229
0.611475110054016113 0.819036424160003662 0.303855448961257935
0.349103033542633057 0.501421988010406494 0.907590985298156738
0.387841463088989258 0.415251165628433228 0.826967179775238037
0.412469536066055298 0.42342376708984375 0.739549696445465088
0.3788948655128479 0.478926956653594971 0.853599965572357178
0.380055248737335205 0.471855908632278442 0.854903757572174072
0.364266693592071533 0.47579270601272583 0.850143015384674072
0.377704799175262451 0.462899476289749146 0.88791656494140625
0.37472960352897644 0.478768348693847656 0.854474484920501709
0.380679994821548462 0.471826434135437012 0.854878067970275879
0.37472960352897644 0.468850761651992798 0.852357387542724609
0.37671312689781189 0.467859387397766113 0.852729380130767822
0.379589080810546875 0.465676844120025635 0.853397965431213379
0.38464704155921936 0.465875118970870972 0.854654788970947266
0.372746080160140991 0.483727514743804932 0.854740798473358154
0.498248487710952759 0.359253346920013428 0.720284938812255859
0.422297358512878418 0.398109614849090576 0.240111023187637329
0.35092771053314209 0.396132200956344604 0.698798298835754395
0.577045202255249023 0.152787923812866211 0.268735617399215698
0.358861625194549561 0.398429393768310547 0.719736576080322266
0.455403596162796021 0.56482541561126709 0.734313786029815674
0.329109311103820801 0.484718531370162964 0.635800540447235107
0.387849777936935425 0.611519217491149902 0.678025007247924805
0.345995694398880005 0.578637242317199707 0.978986859321594238
0.466227024793624878 0.410833090543746948 0.700871467590332031
0.353495925664901733 0.55007481575012207 0.935021877288818359
0.434234976768493652 0.52313077449798584 0.241762444376945496
0.354706436395645142 0.476580917835235596 0.953954398632049561
0.517215132713317871 0.295458137989044189 0.678260147571563721
0.427337557077407837 0.437699466943740845 0.217891320586204529
0.412038832902908325 0.669552862644195557 0.638651728630065918
0.479094594717025757 0.699927091598510742 0.279974430799484253
0.560979366302490234 0.825246512889862061 0.333767175674438477
0.338553160429000854 0.515463054180145264 0.580870568752288818
0.4465312659740448 0.67916947603225708 0.397426605224609375
0.494751036167144775 0.316373467445373535 0.734590828418731689
0.357869833707809448 0.388555526733398438 0.680154025554656982
0.383604615926742554 0.453992128372192383 0.348999917507171631
0.446857213973999023 0.395004928112030029 0.197919324040412903
0.426300913095474243 0.39934241771697998 0.220335826277732849
0.462637424468994141 0.581254363059997559 0.16860179603099823
0.353063613176345825 0.526570737361907959 0.480495482683181763
0.351467758417129517 0.402268648147583008 0.5393257737159729
0.420746952295303345 0.606868147850036621 0.799252092838287354
0.375184357166290283 0.566130638122558594 0.799788832664489746
0.408125966787338257 0.592944741249084473 0.978560090065002441
0.634023189544677734 0.700065553188323975 0.108855381608009338
0.406398802995681763 0.564702391624450684 0.780210614204406738
0.587603330612182617 0.82399827241897583 0.321677476167678833
0.440031349658966064 0.575453042984008789 0.236932113766670227
0.348267346620559692 0.498297214508056641 0.884741246700286865
0.471957623958587646 0.401907622814178467 0.704936802387237549
0.423751682043075562 0.49725678563117981 0.804012835025787354
0.364812135696411133 0.533744156360626221 0.620669126510620117
0.404927968978881836 0.470149248838424683 0.785368502140045166
0.557211518287658691 0.562990367412567139 0.0737779438495635986
0.404666513204574585 0.611077010631561279 0.799375236034393311
0.377226859331130981 0.548506796360015869 0.698887944221496582
0.366597265005111694 0.510069310665130615 0.460472226142883301
0.582215607166290283 0.19284425675868988 0.322024255990982056
0.427223622798919678 0.55414050817489624 0.203014731407165527
0.667790532112121582 0.714534163475036621 0.0918105915188789368
0.446487665176391602 0.59678572416305542 0.839062809944152832
0.419556885957717896 0.409310460090637207 0.263940393924713135
0.385440438985824585 0.412320911884307861 0.366065800189971924
0.390974670648574829 0.417394399642944336 0.557435214519500732
0.393572717905044556 0.516363143920898438 0.660799026489257812
0.39456447958946228 0.367448776960372925 0.897593677043914795
0.414652079343795776 0.448238492012023926 0.779857814311981201
0.332225680351257324 0.564157366752624512 0.939882218837738037
0.640740394592285156 0.841252386569976807 0.244767278432846069
0.469139128923416138 0.670175135135650635 0.396850079298019409
0.409538060426712036 0.491011083126068115 0.80151069164276123
0.399523228406906128 0.594207882881164551 0.538239598274230957
0.377109706401824951 0.482735693454742432 0.793215453624725342
0.468915492296218872 0.655850648880004883 0.282453835010528564
0.435389906167984009 0.43453630805015564 0.20496051013469696
0.569984674453735352 0.811071455478668213 0.340926975011825562
0.477940917015075684 0.404975354671478271 0.75410926342010498
0.578037261962890625 0.83530128002166748 0.296903222799301147
0.367968320846557617 0.453974038362503052 0.816531538963317871
0.660748839378356934 0.703741312026977539 0.0865872129797935486
0.410933047533035278 0.677414536476135254 0.581584632396697998
0.649443209171295166 0.697944343090057373 0.103965401649475098
0.428926467895507812 0.528355538845062256 0.84004586935043335
0.493083924055099487 0.347857415676116943 0.727444231510162354
0.437627106904983521 0.606782853603363037 0.477529734373092651
0.427224278450012207 0.629235506057739258 0.71626579761505127
0.432250708341598511 0.563066720962524414 0.399289220571517944
0.351522743701934814 0.530973374843597412 0.742608249187469482
0.437023520469665527 0.593962788581848145 0.81644129753112793
0.407853841781616211 0.365123927593231201 0.863021373748779297
0.599856019020080566 0.602525770664215088 0.0487534627318382263
0.401289999485015869 0.462811797857284546 0.960708737373352051
0.348200947046279907 0.472795546054840088 0.623912513256072998
0.428744643926620483 0.654335319995880127 0.614589989185333252
0.382663518190383911 0.407201021909713745 0.499983876943588257
0.428878962993621826 0.421925395727157593 0.738557577133178711
0.368117988109588623 0.568223118782043457 0.371737122535705566
0.42362251877784729 0.585192203521728516 0.703968703746795654
0.436265289783477783 0.584671139717102051 0.334791272878646851
0.459662854671478271 0.616322934627532959 0.83252185583114624
0.458035677671432495 0.704662024974822998 0.467902511358261108
0.528450131416320801 0.79612654447555542 0.345618963241577148
0.403481602668762207 0.48174324631690979 0.678425729274749756
0.564265906810760498 0.171555161476135254 0.319069236516952515
0.354676514863967896 0.405609846115112305 0.992848992347717285
0.373142808675765991 0.44341588020324707 0.478343695402145386
0.496192514896392822 0.580449104309082031 0.124667160212993622
0.361520826816558838 0.582603931427001953 0.995911777019500732
0.436522156000137329 0.620842516422271729 0.682276308536529541
0.591129660606384277 0.575927019119262695 0.0486503206193447113
0.436362743377685547 0.422239243984222412 0.383061498403549194
0.579426169395446777 0.430767625570297241 0.0478395484387874603
0.440369307994842529 0.538867771625518799 0.258949905633926392
0.424701422452926636 0.623206198215484619 0.39640536904335022
0.399963974952697754 0.577463924884796143 0.3160744309425354
0.491756200790405273 0.538291037082672119 0.128036990761756897
0.344986766576766968 0.451470047235488892 0.959151744842529297
0.446134567260742188 0.568123936653137207 0.158636078238487244
0.521067976951599121 0.225317612290382385 0.483916640281677246
0.346960663795471191 0.536512553691864014 0.688574135303497314
0.514494597911834717 0.32370913028717041 0.718752384185791016
0.502564847469329834 0.775300800800323486 0.436193972826004028
0.397936493158340454 0.606366574764251709 0.910773992538452148
0.434900194406509399 0.576950550079345703 0.258393347263336182
0.360549837350845337 0.378601878881454468 0.638558685779571533
0.464978337287902832 0.601744890213012695 0.787559270858764648
0.450101613998413086 0.534621059894561768 0.197183817625045776
0.427863270044326782 0.397643625736236572 0.836735367774963379
0.510598182678222656 0.549974739551544189 0.108850307762622833
0.396285146474838257 0.620587944984436035 0.436747580766677856
0.387055486440658569 0.538074731826782227 0.822797894477844238
0.631865859031677246 0.716875672340393066 0.133208155632019043
0.361224353313446045 0.533710360527038574 0.418223679065704346
0.514467000961303711 0.366970479488372803 0.701080501079559326
0.426976948976516724 0.417478799819946289 0.723694205284118652
0.426585227251052856 0.477815896272659302 0.857182025909423828
0.427034258842468262 0.640423119068145752 0.643052160739898682
0.367841511964797974 0.512864410877227783 0.823550045490264893
0.422134846448898315 0.590276241302490234 0.718861520290374756
0.522499620914459229 0.413313060998916626 0.0882644578814506531
0.490169405937194824 0.350844442844390869 0.663660705089569092
0.402215093374252319 0.520421445369720459 0.801318645477294922
0.415887027978897095 0.55400693416595459 0.71673959493637085
0.499402821063995361 0.247691407799720764 0.602248668670654297
0.399906694889068604 0.591827332973480225 0.599713623523712158
0.512968778610229492 0.260583996772766113 0.49982103705406189
0.44437021017074585 0.523368000984191895 0.202092677354812622
0.406489968299865723 0.391744107007980347 0.982229888439178467
0.425173729658126831 0.587463438510894775 0.778128445148468018
0.392580956220626831 0.480878323316574097 0.850105941295623779
0.441176891326904297 0.611090600490570068 0.82025146484375
0.460057526826858521 0.401384115219116211 0.766859531402587891
0.375987917184829712 0.600752770900726318 0.517548084259033203
0.434829264879226685 0.68132174015045166 0.612816870212554932
0.423694193363189697 0.699576318264007568 0.500539243221282959
0.538367867469787598 0.710591256618499756 0.186948984861373901
0.480568438768386841 0.725334405899047852 0.517993450164794922
0.411973863840103149 0.56955265998840332 0.973769724369049072
0.390597432851791382 0.622676312923431396 0.537520289421081543
0.425110757350921631 0.575443863868713379 0.263511240482330322
0.357373982667922974 0.507283031940460205 0.522473812103271484
0.40614771842956543 0.626537740230560303 0.516902923583984375
0.332995474338531494 0.491372585296630859 0.667945206165313721
0.427083462476730347 0.485000789165496826 0.714755356311798096
0.380481690168380737 0.505486667156219482 0.937821626663208008
0.371754318475723267 0.545440614223480225 0.958724915981292725
0.363080650568008423 0.568223714828491211 0.991731524467468262
0.51853257417678833 0.229993134737014771 0.579667210578918457
0.491807788610458374 0.276715934276580811 0.660209715366363525
0.436217725276947021 0.402899771928787231 0.757370471954345703
0.354316353797912598 0.53529822826385498 0.479711949825286865
0.398531526327133179 0.557053565979003906 0.866294503211975098
0.522233366966247559 0.701513946056365967 0.183765441179275513
0.392580956220626831 0.530505061149597168 0.343842923641204834
0.362285733222961426 0.555132627487182617 0.438842266798019409
0.36877906322479248 0.585289061069488525 0.557067990303039551
0.390597432851791382 0.384378731250762939 0.879485249519348145
0.493378341197967529 0.342293411493301392 0.65947335958480835
0.369548678398132324 0.456482261419296265 0.802029132843017578
0.349723398685455322 0.401746183633804321 0.579878449440002441
0.414439409971237183 0.468057006597518921 0.891881227493286133
0.604510784149169922 0.590438783168792725 0.0284678544849157333
0.572438359260559082 0.804762303829193115 0.323016375303268433
0.426300913095474243 0.61868363618850708 0.39797210693359375
0.420349597930908203 0.440883547067642212 0.238535672426223755
0.418046921491622925 0.586074769496917725 0.940516531467437744
0.486797362565994263 0.734439849853515625 0.427948355674743652
0.535392105579376221 0.231401965022087097 0.444009393453598022
0.349737584590911865 0.442787379026412964 0.640473842620849609
0.383694976568222046 0.48769378662109375 0.993789196014404297
0.587452411651611328 0.20702970027923584 0.399935662746429443
0.33446165919303894 0.502719759941101074 0.663681089878082275
0.395078152418136597 0.545810103416442871 0.638272464275360107
0.39456447958946228 0.465920001268386841 0.719129264354705811
0.390597522258758545 0.604372739791870117 0.885708272457122803
0.339210927486419678 0.590135335922241211 0.920463204383850098
0.47509467601776123 0.699995934963226318 0.281589627265930176
0.478880316019058228 0.681907296180725098 0.220707908272743225
0.479715526103973389 0.66371607780456543 0.383215248584747314
0.454068630933761597 0.744918763637542725 0.50351417064666748
0.451490819454193115 0.743993043899536133 0.501169264316558838
0.371020972728729248 0.553429007530212402 0.977370023727416992
0.625731527805328369 0.844261229038238525 0.264999449253082275
0.488948971033096313 0.539154231548309326 0.132825464010238647
0.400436192750930786 0.422760605812072754 0.742041707038879395
0.437854558229446411 0.406331449747085571 0.858834564685821533
0.35089227557182312 0.49387967586517334 0.586820363998413086
0.358996570110321045 0.500090241432189941 0.776243627071380615
0.414534062147140503 0.623760819435119629 0.518104732036590576
0.359796732664108276 0.547198593616485596 0.437067478895187378
0.338982671499252319 0.429936498403549194 0.660209715366363525
0.619690418243408203 0.844285547733306885 0.283426761627197266
0.408564448356628418 0.437392562627792358 0.640473604202270508
0.384996503591537476 0.502814233303070068 0.578886330127716064
0.517397165298461914 0.776886820793151855 0.382747948169708252
0.362091869115829468 0.495233595371246338 0.554489552974700928
0.445907562971115112 0.737639367580413818 0.518927395343780518
0.405057162046432495 0.600752770900726318 0.71685260534286499
0.338315516710281372 0.508322358131408691 0.700633525848388672
0.398879915475845337 0.509360074996948242 0.660100638866424561
0.440200448036193848 0.431282401084899902 0.236106067895889282
0.384576022624969482 0.55404198169708252 0.796347558498382568
0.466367185115814209 0.693904280662536621 0.52086949348449707
0.425507485866546631 0.603763997554779053 0.85899430513381958
0.434973597526550293 0.407880067825317383 0.761367619037628174
0.544492661952972412 0.224188804626464844 0.562126398086547852
0.383472830057144165 0.456313043832778931 0.382025629281997681
0.387954473495483398 0.395594567060470581 0.624784469604492188
0.484813541173934937 0.357775330543518066 0.720906555652618408
0.5780373215675354 0.599888920783996582 0.0646711662411689758
0.347670972347259521 0.562570631504058838 0.90441519021987915
0.420350342988967896 0.443065047264099121 0.718829512596130371
0.442532539367675781 0.416784465312957764 0.783163309097290039
0.340973824262619019 0.532917261123657227 0.691394567489624023
0.391647100448608398 0.377709180116653442 0.700643002986907959
0.457044661045074463 0.528343856334686279 0.162869572639465332
0.377833366394042969 0.607694685459136963 0.521365046501159668
0.555638432502746582 0.686333000659942627 0.168304309248924255
0.404620617628097534 0.557373285293579102 0.954689502716064453
0.564901173114776611 0.244803369045257568 0.51885676383972168
0.415027529001235962 0.387989699840545654 0.879710912704467773
0.487079977989196777 0.239034369587898254 0.539415419101715088
0.575954675674438477 0.692585170269012451 0.160568669438362122
0.485298663377761841 0.584403276443481445 0.143598094582557678
0.369922906160354614 0.512675225734710693 0.442140519618988037
0.439744919538497925 0.47579270601272583 0.876752614974975586
0.477990061044692993 0.425627619028091431 0.129188582301139832
0.347322285175323486 0.523397088050842285 0.737486422061920166
0.368481576442718506 0.446251749992370605 0.602292180061340332
0.356563329696655273 0.436444073915481567 0.58632427453994751
0.390597522258758545 0.563065946102142334 0.459757566452026367
0.376555114984512329 0.420109033584594727 0.784562468528747559
0.477194070816040039 0.649348556995391846 0.361694574356079102
0.513574123382568359 0.266850411891937256 0.544452965259552002
0.541265666484832764 0.407820910215377808 0.0869807898998260498
0.435863137245178223 0.500586271286010742 0.820376694202423096
0.392624050378799438 0.553851723670959473 0.649400174617767334
0.502125561237335205 0.28220444917678833 0.557464659214019775
0.443331539630889893 0.44274863600730896 0.201467901468276978
0.35413891077041626 0.399121344089508057 0.561332523822784424
0.41439935564994812 0.485710293054580688 0.703344285488128662
0.44018477201461792 0.52717512845993042 0.818726658821105957
0.443503707647323608 0.544184088706970215 0.244856745004653931
0.398531526327133179 0.493644356727600098 0.955160379409790039
0.377208888530731201 0.399300247430801392 0.733349859714508057
0.401506721973419189 0.610044896602630615 0.560870170593261719
0.39952319860458374 0.411669790744781494 0.68817061185836792
0.407259136438369751 0.584726214408874512 0.759671568870544434
0.389923095703125 0.583034694194793701 0.366689682006835938
0.411225825548171997 0.628444671630859375 0.644541680812835693
0.373737841844558716 0.375962704420089722 0.660209715366363525
0.433040112257003784 0.597281813621520996 0.697043001651763916
0.426300913095474243 0.670489192008972168 0.659614622592926025
0.454664379358291626 0.58004605770111084 0.72411733865737915
0.432540416717529297 0.403163701295852661 0.20218193531036377
0.354320019483566284 0.410909295082092285 0.477857381105422974
0.371321380138397217 0.571615338325500488 0.418878257274627686
0.359844505786895752 0.555052399635314941 0.905605494976043701
0.458006143569946289 0.684444248676300049 0.3041725754737854
0.443741381168365479 0.400118768215179443 0.242685064673423767
0.428998470306396484 0.595380663871765137 0.682667136192321777
0.593905448913574219 0.436459630727767944 0.0442564822733402252
0.417521685361862183 0.600752770900726318 0.478839606046676636
0.358564138412475586 0.487164944410324097 0.95793229341506958
0.383655279874801636 0.585648179054260254 0.887319803237915039
0.395556241273880005 0.562352240085601807 0.860542654991149902
0.342993706464767456 0.467495739459991455 0.648308634757995605
0.594897568225860596 0.198081165552139282 0.346431702375411987
0.422553092241287231 0.397177666425704956 0.914294898509979248
0.406961292028427124 0.499991625547409058 0.935265779495239258
0.616256535053253174 0.820800483226776123 0.26190030574798584
0.394812405109405518 0.406370371580123901 0.323016375303268433
0.487460970878601074 0.595794379711151123 0.798816025257110596
0.458773553371429443 0.666207313537597656 0.282354652881622314
0.628616631031036377 0.701755702495574951 0.125359088182449341
0.350274413824081421 0.41983187198638916 0.503315448760986328
0.369396418333053589 0.409541040658950806 0.733806729316711426
0.393586158752441406 0.406583130359649658 0.600704967975616455
0.660402178764343262 0.837237954139709473 0.227218315005302429
0.394776493310928345 0.616223454475402832 0.456306606531143188
0.424139708280563354 0.440855473279953003 0.398188203573226929
0.448118835687637329 0.401365309953689575 0.184167161583900452
0.501419544219970703 0.725099444389343262 0.445000797510147095
0.362636864185333252 0.520421445369720459 0.439051002264022827
0.434152960777282715 0.701325297355651855 0.52205967903137207
0.545838534832000732 0.589843809604644775 0.0863796994090080261
0.35092771053314209 0.540851593017578125 0.520076155662536621
0.39406856894493103 0.55299144983291626 0.941815733909606934
0.408570736646652222 0.580917596817016602 0.881369233131408691
0.563161313533782959 0.260584503412246704 0.544807970523834229
0.597717821598052979 0.428817987442016602 0.0417393818497657776
0.386290580034255981 0.520998775959014893 0.695636153221130371
0.378299832344055176 0.597146093845367432 0.615606606006622314
0.580218791961669922 0.425792068243026733 0.0643850117921829224
0.43627205491065979 0.440089404582977295 0.381529003381729126
0.388614088296890259 0.625282943248748779 0.472770035266876221
0.510894834995269775 0.759432613849639893 0.460333049297332764
0.431755006313323975 0.675955891609191895 0.637399673461914062
0.352781116962432861 0.534095704555511475 0.583845317363739014
0.450180947780609131 0.638462483882904053 0.343723446130752563
0.497388631105422974 0.262541383504867554 0.616374433040618896
0.444151788949966431 0.572608709335327148 0.735317468643188477
0.406714290380477905 0.616124451160430908 0.664850950241088867
0.359620481729507446 0.581017434597015381 0.734017729759216309
0.440261721611022949 0.655566215515136719 0.341859430074691772
0.375780880451202393 0.480553150177001953 0.99290013313293457
0.497904360294342041 0.677117049694061279 0.209992557764053345
0.394401431083679199 0.433118373155593872 0.596241891384124756
0.421341598033905029 0.583292722702026367 0.362218946218490601
0.353316009044647217 0.509011507034301758 0.520373702049255371
