ply
format ascii 1.0
element vertex 763
property float x
property float y
property float z
end_header
0.361151695251464844 0.58818584680557251 0.62002408504486084
0.491344273090362549 0.735091745853424072 0.423130035400390625
0.371020972728729248 0.55233609676361084 0.977489054203033447
0.43292081356048584 0.537777364253997803 0.20115324854850769
0.440402060747146606 0.568025112152099609 0.259544581174850464
0.572049081325531006 0.22702336311340332 0.459877550601959229
0.413407891988754272 0.594072639942169189 0.818648219108581543
0.404680252075195312 0.458734452724456787 0.68082427978515625
0.424774408340454102 0.663563251495361328 0.438257128000259399
0.382663518190383911 0.547171950340270996 0.937918126583099365
0.45894390344619751 0.400335997343063354 0.164083763957023621
0.359226197004318237 0.41551131010055542 0.41965186595916748
0.466993451118469238 0.735233783721923828 0.459242433309555054
0.473444372415542603 0.353808283805847168 0.73982614278793335
0.398531526327133179 0.561513423919677734 0.861534059047698975
0.365329086780548096 0.453684091567993164 0.800739943981170654
0.485006749629974365 0.699927091598510742 0.256568938493728638
0.423523515462875366 0.573638617992401123 0.799053668975830078
0.442297309637069702 0.434138864278793335 0.181196793913841248
0.381671756505966187 0.604213535785675049 0.60070502758026123
0.421875715255737305 0.383006513118743896 0.919085562229156494
0.421910703182220459 0.432354450225830078 0.241651430726051331
0.41854819655418396 0.440221130847930908 0.801220059394836426
0.621746361255645752 0.586868882179260254 0.0106164421886205673
0.46894538402557373 0.679597020149230957 0.380537599325180054
0.362636864185333252 0.520421445369720459 0.439051002264022827
0.580218791961669922 0.423882871866226196 0.0651192516088485718
0.415887027978897095 0.55400693416595459 0.71673959493637085
0.368969470262527466 0.462662100791931152 0.847398221492767334
0.367192357778549194 0.525125622749328613 0.742326140403747559
0.462637424468994141 0.581632018089294434 0.168304309248924255
0.391647100448608398 0.374793052673339844 0.699879348278045654
0.377506494522094727 0.458583861589431763 0.363826364278793335
0.549467563629150391 0.701911389827728271 0.170113548636436462
0.458035677671432495 0.702407479286193848 0.465018540620803833
0.42411881685256958 0.401377558708190918 0.678237974643707275
0.333553403615951538 0.47558671236038208 0.644342362880706787
0.499402821063995361 0.247691407799720764 0.602248668670654297
0.440790534019470215 0.546990692615509033 0.361402601003646851
0.660748839378356934 0.706879734992980957 0.0895058661699295044
0.484813541173934937 0.674141407012939453 0.220383524894714355
0.422254472970962524 0.418648272752761841 0.896873891353607178
0.466552197933197021 0.639430999755859375 0.345213800668716431
0.534835278987884521 0.273476541042327881 0.638705670833587646
0.434873253107070923 0.379358142614364624 0.755524218082427979
0.460812598466873169 0.43953213095664978 0.163791432976722717
0.355150997638702393 0.603331387042999268 0.915881931781768799
0.477937221527099609 0.655371427536010742 0.299214541912078857
0.413804352283477783 0.690802991390228271 0.618083596229553223
0.340807110071182251 0.406422138214111328 0.680537819862365723
0.438297063112258911 0.67513352632522583 0.601697146892547607
0.523383677005767822 0.345149010419845581 0.722372770309448242
0.452378660440444946 0.706869781017303467 0.468776047229766846
0.425308465957641602 0.364855706691741943 0.694664239883422852
0.362285733222961426 0.56106942892074585 0.436075329780578613
0.564546525478363037 0.229205459356307983 0.52024918794631958
0.46479758620262146 0.685071468353271484 0.33991357684135437
0.520516097545623779 0.215001091361045837 0.520373702049255371
0.42159271240234375 0.455602169036865234 0.306128799915313721
0.510285377502441406 0.582400977611541748 0.124132998287677765
0.366745978593826294 0.591216981410980225 0.674469351768493652
0.382663518190383911 0.596838831901550293 0.519025266170501709
0.412407875061035156 0.5264548659324646 0.258780956268310547
0.595888972282409668 0.5848846435546875 0.0329838581383228302
0.389857381582260132 0.539661169052124023 0.501530647277832031
0.591380536556243896 0.17251703143119812 0.298520326614379883
0.387622237205505371 0.574967801570892334 0.884120821952819824
0.35588642954826355 0.467719078063964844 0.640666544437408447
0.397930234670639038 0.582444727420806885 0.599288761615753174
0.486104428768157959 0.768020868301391602 0.422190725803375244
0.437627106904983521 0.610010683536529541 0.48022732138633728
0.412824302911758423 0.578500270843505859 0.937899112701416016
0.580638766288757324 0.592818677425384521 0.0466275736689567566
0.553210914134979248 0.185489028692245483 0.321032851934432983
0.380481690168380737 0.499913811683654785 0.936665713787078857
0.471465796232223511 0.683883488178253174 0.360265105962753296
0.339026749134063721 0.404040127992630005 0.640666544437408447
0.421585440635681152 0.712430417537689209 0.53955996036529541
0.392580956220626831 0.582051575183868408 0.415626019239425659
0.40011829137802124 0.511450231075286865 0.418689757585525513
0.425173729658126831 0.581215620040893555 0.780665814876556396
0.388337194919586182 0.414492309093475342 0.539216697216033936
0.380679994821548462 0.597457230091094971 0.884723663330078125
0.470781803131103516 0.53390955924987793 0.157394587993621826
0.524218618869781494 0.437576055526733398 0.100812442600727081
0.50411224365234375 0.229512691497802734 0.560043990612030029
0.388663500547409058 0.391788601875305176 0.713764309883117676
0.391490042209625244 0.489880144596099854 0.869857311248779297
0.478046327829360962 0.359460890293121338 0.684106588363647461
0.381671756505966187 0.403111785650253296 0.817299902439117432
0.435295760631561279 0.55414050817489624 0.380537599325180054
0.371754318475723267 0.545440614223480225 0.958724915981292725
0.461606740951538086 0.719464421272277832 0.537423193454742432
0.411994308233261108 0.519734859466552734 0.302189826965332031
0.405057191848754883 0.440792590379714966 0.28136327862739563
0.434973597526550293 0.407880067825317383 0.761367619037628174
0.440654665231704712 0.503248631954193115 0.879385769367218018
0.378299832344055176 0.596509575843811035 0.615606606006622314
0.358818322420120239 0.568342864513397217 0.673336148262023926
0.421596914529800415 0.661448240280151367 0.680241048336029053
0.475357681512832642 0.754473447799682617 0.456901878118515015
0.447127461433410645 0.385069996118545532 0.758710324764251709
0.455838024616241455 0.578607082366943359 0.18068300187587738
0.479720056056976318 0.292717099189758301 0.619862496852874756
0.421386271715164185 0.557116150856018066 0.989545762538909912
0.389825582504272461 0.406371116638183594 0.812527358531951904
0.493083924055099487 0.347857415676116943 0.727444231510162354
0.441176146268844604 0.409346014261245728 0.682121932506561279
0.376459121704101562 0.454767435789108276 0.394421845674514771
0.37671312689781189 0.618343830108642578 0.560043990612030029
0.395556271076202393 0.629321753978729248 0.519211769104003906
0.375780880451202393 0.480553150177001953 0.99290013313293457
0.390002399682998657 0.439820796251296997 0.557663023471832275
0.443553358316421509 0.528492927551269531 0.167726114392280579
0.368993639945983887 0.484123796224594116 0.844076693058013916
0.394362449645996094 0.400882691144943237 0.420693069696426392
0.477194070816040039 0.649348556995391846 0.361694574356079102
0.562161505222320557 0.589843809604644775 0.0661768689751625061
0.463301718235015869 0.622336804866790771 0.460933834314346313
0.478254407644271851 0.274270117282867432 0.620540201663970947
0.424481868743896484 0.429181188344955444 0.736503839492797852
0.372746080160140991 0.532250165939331055 0.599712848663330078
0.38593629002571106 0.543099939823150635 0.70460045337677002
0.412911981344223022 0.670848608016967773 0.580051243305206299
0.634023189544677734 0.699105739593505859 0.107885845005512238
0.452570259571075439 0.348204821348190308 0.700387835502624512
0.369396418333053589 0.40898507833480835 0.733806729316711426
0.454564541578292847 0.603720128536224365 0.839863717555999756
0.37560233473777771 0.466615498065948486 0.699557781219482422
0.426300913095474243 0.39934241771697998 0.220335826277732849
0.34642907977104187 0.430367231369018555 0.560043275356292725
0.369803398847579956 0.399642676115036011 0.519382297992706299
0.38043212890625 0.540937185287475586 0.937006115913391113
0.407137870788574219 0.575919210910797119 0.874685287475585938
0.573307812213897705 0.199577793478965759 0.439506798982620239
0.372231870889663696 0.441180437803268433 0.816482484340667725
0.378436565399169922 0.385002702474594116 0.643978357315063477
0.472760021686553955 0.393477857112884521 0.70225822925567627
0.351080238819122314 0.586451888084411621 0.956009924411773682
0.477305740118026733 0.722187936305999756 0.441033750772476196
0.407853841781616211 0.36880764365196228 0.863690793514251709
0.356481403112411499 0.50634002685546875 0.499636381864547729
0.36344456672668457 0.403454303741455078 0.459876775741577148
0.36877906322479248 0.585289061069488525 0.557067990303039551
0.488482534885406494 0.278501033782958984 0.682722747325897217
0.408448934555053711 0.386554062366485596 0.322420954704284668
0.393586158752441406 0.406583130359649658 0.600704967975616455
0.491835802793502808 0.700856447219848633 0.223617956042289734
0.475271821022033691 0.624157547950744629 0.382056385278701782
0.531726479530334473 0.326554626226425171 0.700460851192474365
0.415540724992752075 0.529936492443084717 0.400590240955352783
0.412276417016983032 0.433941245079040527 0.664176762104034424
0.428998470306396484 0.600185036659240723 0.680905938148498535
0.407457202672958374 0.398437052965164185 0.818498790264129639
0.663726747035980225 0.832972109317779541 0.232125699520111084
0.427224278450012207 0.628144621849060059 0.717167973518371582
0.441748499870300293 0.362562090158462524 0.701537668704986572
0.564421296119689941 0.206735506653785706 0.479711949825286865
0.37226569652557373 0.501280903816223145 0.824172854423522949
0.411421984434127808 0.446357488632202148 0.941865384578704834
0.393854528665542603 0.622570693492889404 0.65375131368637085
0.435226351022720337 0.390579164028167725 0.302189052104949951
0.395078152418136597 0.54997551441192627 0.64032435417175293
0.490788280963897705 0.662241041660308838 0.240105748176574707
0.406465440988540649 0.412320911884307861 0.979340255260467529
0.341067641973495483 0.482924014329910278 0.683813989162445068
0.468915492296218872 0.6555061936378479 0.282354652881622314
0.441991716623306274 0.417084276676177979 0.755437731742858887
0.613144993782043457 0.701414942741394043 0.130224853754043579
0.443564802408218384 0.569193780422210693 0.339048236608505249
0.552252352237701416 0.192962855100631714 0.438058853149414062
0.44177672266960144 0.683165550231933594 0.357568889856338501
0.437545984983444214 0.466215401887893677 0.860573172569274902
0.409684151411056519 0.377309918403625488 0.936994254589080811
0.559942722320556641 0.177252665162086487 0.299080044031143188
0.421546965837478638 0.401469439268112183 0.400372803211212158
0.420928686857223511 0.583027541637420654 0.992444694042205811
0.442812621593475342 0.608686089515686035 0.838578402996063232
0.38960576057434082 0.595509886741638184 0.675086498260498047
0.529442310333251953 0.805472791194915771 0.378058016300201416
0.611475110054016113 0.821743786334991455 0.304113298654556274
0.55293738842010498 0.819928824901580811 0.324008524417877197
0.387977838516235352 0.528685271739959717 0.540208101272583008
0.43423423171043396 0.577637910842895508 0.239709421992301941
0.519523978233337402 0.259327828884124756 0.63640749454498291
0.411886751651763916 0.508817911148071289 0.902352511882781982
0.362488299608230591 0.449015587568283081 0.799611985683441162
0.443259268999099731 0.575527310371398926 0.742175400257110596
0.363199412822723389 0.550173461437225342 0.404339075088500977
0.36822134256362915 0.581334710121154785 0.820277571678161621
0.389656692743301392 0.390502989292144775 0.993436038494110107
0.357869833707809448 0.388050615787506104 0.680044889450073242
0.451490819454193115 0.743993043899536133 0.501169264316558838
0.33935999870300293 0.510503888130187988 0.580681204795837402
0.384051978588104248 0.412588238716125488 0.580114960670471191
0.33446165919303894 0.508951544761657715 0.658622980117797852
0.471641570329666138 0.647087335586547852 0.441382318735122681
0.426419317722320557 0.396452784538269043 0.783880114555358887
0.611154317855834961 0.706869840621948242 0.127642363309860229
0.502564847469329834 0.779267489910125732 0.4382171630859375
0.376713037490844727 0.451757371425628662 0.437951713800430298
0.42348518967628479 0.651530802249908447 0.382217824459075928
0.558930754661560059 0.589475452899932861 0.0824534595012664795
0.407546132802963257 0.602735519409179688 0.479711949825286865
0.489771932363510132 0.771333694458007812 0.46162298321723938
0.421079933643341064 0.537082850933074951 0.221160337328910828
0.386225253343582153 0.378749758005142212 0.66083294153213501
0.405275344848632812 0.551826536655426025 0.858945190906524658
0.361807018518447876 0.516898512840270996 0.460323065519332886
0.36114269495010376 0.437114506959915161 0.79930192232131958
0.396548002958297729 0.490232706069946289 0.868772208690643311
0.399523228406906128 0.593017578125 0.538239598274230957
0.395868659019470215 0.38860321044921875 0.378752529621124268
0.399963974952697754 0.582040131092071533 0.316967010498046875
0.342282563447952271 0.42828822135925293 0.85867685079574585
0.49373897910118103 0.677414953708648682 0.239553630352020264
0.443160414695739746 0.593354403972625732 0.840248048305511475
0.596630871295928955 0.824384570121765137 0.288977831602096558
0.39952319860458374 0.411669790744781494 0.68817061185836792
0.582040131092071533 0.711253762245178223 0.146485626697540283
0.355825692415237427 0.406190782785415649 0.478945404291152954
0.380977600812911987 0.389667004346847534 0.601696372032165527
0.36694219708442688 0.386299639940261841 0.937541723251342773
0.36973533034324646 0.510542809963226318 0.777830421924591064
0.572438359260559082 0.804762303829193115 0.323016375303268433
0.565340638160705566 0.20717206597328186 0.46186104416847229
0.369463354349136353 0.592398524284362793 0.97602081298828125
0.418046951293945312 0.441478848457336426 0.915088295936584473
0.41439935564994812 0.481561869382858276 0.703561484813690186
0.552556395530700684 0.411427170038223267 0.0703752264380455017
0.521032154560089111 0.809927105903625488 0.377166002988815308
0.423538446426391602 0.724125921726226807 0.519341766834259033
0.35092771053314209 0.48174324631690979 0.761197388172149658
0.361224353313446045 0.534677267074584961 0.418223679065704346
0.588946282863616943 0.159425944089889526 0.281471163034439087
0.350927621126174927 0.533005356788635254 0.559103965759277344
0.431345343589782715 0.396575003862380981 0.259544581174850464
0.396746307611465454 0.548585712909698486 0.983178198337554932
0.436217725276947021 0.404982566833496094 0.757690727710723877
0.426895231008529663 0.615948319435119629 0.659523189067840576
0.40227392315864563 0.531331181526184082 0.458885431289672852
0.390121489763259888 0.448681354522705078 0.762173116207122803
0.392346233129501343 0.546382367610931396 0.918013572692871094
0.403851777315139771 0.398204386234283447 0.699523031711578369
0.423834353685379028 0.607694685459136963 0.724090456962585449
0.497904360294342041 0.67652207612991333 0.209514081478118896
0.481947422027587891 0.685113608837127686 0.298692077398300171
0.38579210638999939 0.405691027641296387 0.817425906658172607
0.339818120002746582 0.527364134788513184 0.619548797607421875
0.421748340129852295 0.497733831405639648 0.83303147554397583
0.403652757406234741 0.650539040565490723 0.643350183963775635
0.56287384033203125 0.712657392024993896 0.167312175035476685
0.403818756341934204 0.581123113632202148 0.835364401340484619
0.368117988109588623 0.562986612319946289 0.37838435173034668
0.354894578456878662 0.509667932987213135 0.8611258864402771
0.467095404863357544 0.691001296043395996 0.258770972490310669
0.353999167680740356 0.385882556438446045 0.641366720199584961
0.416261047124862671 0.535773515701293945 0.74044191837310791
0.383846074342727661 0.521412849426269531 0.498860567808151245
0.501838207244873047 0.727768480777740479 0.479294478893280029
0.58497929573059082 0.197695598006248474 0.380269855260848999
0.461435943841934204 0.683116912841796875 0.319049328565597534
0.400514960289001465 0.585205256938934326 0.861918091773986816
0.403978109359741211 0.548519492149353027 0.821586787700653076
0.403854489326477051 0.424261689186096191 0.260216623544692993
0.564265906810760498 0.166475370526313782 0.321032851934432983
0.559194266796112061 0.209721490740776062 0.381926476955413818
0.41439935564994812 0.485710293054580688 0.703344285488128662
0.587452411651611328 0.20702970027923584 0.399935662746429443
0.422333270311355591 0.53884577751159668 0.818854928016662598
0.486520886421203613 0.373498409986495972 0.719469070434570312
0.396285146474838257 0.620984673500061035 0.436747580766677856
0.429392486810684204 0.567907035350799561 0.761378645896911621
0.382167667150497437 0.544860601425170898 0.539414703845977783
0.365252494812011719 0.513698577880859375 0.420385748147964478
0.584707140922546387 0.192946955561637878 0.356301337480545044
0.387031644582748413 0.434635281562805176 0.761995851993560791
0.40051501989364624 0.552828431129455566 0.673916280269622803
0.63204348087310791 0.581905126571655273 0.0112177589908242226
0.424563348293304443 0.408232420682907104 0.219874992966651917
0.345674663782119751 0.429878324270248413 0.622523665428161621
0.425308912992477417 0.454385131597518921 0.35971030592918396
0.442167520523071289 0.690659284591674805 0.600216448307037354
0.467954009771347046 0.729378223419189453 0.441695600748062134
0.399906694889068604 0.591827332973480225 0.599713623523712158
0.425150185823440552 0.393178343772888184 0.75930863618850708
0.433213114738464355 0.732189774513244629 0.498416125774383545
0.660055279731750488 0.829531729221343994 0.231445640325546265
0.443331539630889893 0.442072927951812744 0.201467901468276978
0.365980982780456543 0.449416995048522949 0.640533208847045898
0.450895756483078003 0.582554399967193604 0.180701106786727905
0.395672976970672607 0.587601959705352783 0.686034739017486572
0.415793329477310181 0.48174324631690979 0.822657465934753418
0.409538060426712036 0.495176702737808228 0.801276504993438721
0.361451268196105957 0.558822333812713623 0.499547511339187622
0.535647094249725342 0.810011208057403564 0.342851549386978149
0.407037168741226196 0.558107554912567139 0.779818296432495117
0.36783212423324585 0.569611549377441406 0.798565387725830078
0.372746080160140991 0.44335445761680603 0.77998429536819458
0.546169638633728027 0.194335401058197021 0.438717693090438843
0.411973863840103149 0.565168917179107666 0.979551434516906738
0.528283417224884033 0.309969097375869751 0.696312904357910156
0.588985919952392578 0.203329741954803467 0.401661664247512817
0.359844505786895752 0.547038018703460693 0.899109184741973877
0.407020747661590576 0.453887999057769775 0.796079039573669434
0.496192514896392822 0.580449104309082031 0.124667160212993622
0.411419093608856201 0.591290593147277832 0.920046746730804443
0.392580956220626831 0.441550523042678833 0.841835498809814453
0.427788048982620239 0.455505996942520142 0.303181201219558716
0.450101613998413086 0.362349867820739746 0.696231842041015625
0.458234846591949463 0.702171385288238525 0.537993371486663818
0.375721365213394165 0.594235599040985107 0.798063099384307861
0.41562458872795105 0.557362258434295654 0.799361169338226318
0.397529721260070801 0.579925835132598877 0.645194888114929199
0.351978838443756104 0.470616847276687622 0.695099532604217529
0.59307628870010376 0.199095755815505981 0.360702455043792725
0.535392105579376221 0.231401965022087097 0.444009393453598022
0.360488027334213257 0.483041226863861084 0.607646942138671875
0.430663883686065674 0.511495232582092285 0.301664441823959351
0.358663350343704224 0.599469423294067383 0.956741392612457275
0.649443209171295166 0.697944343090057373 0.103965401649475098
0.357380568981170654 0.52332073450088501 0.882757723331451416
0.532615900039672852 0.791129708290100098 0.345640838146209717
0.356563329696655273 0.441940784454345703 0.585124313831329346
0.336442142724990845 0.519270658493041992 0.600704967975616455
0.520256161689758301 0.587126433849334717 0.10549578070640564
0.547590732574462891 0.714626193046569824 0.179213285446166992
0.35092771053314209 0.398183226585388184 0.698411524295806885
0.396106481552124023 0.585876762866973877 0.676077902317047119
0.408125966787338257 0.592944741249084473 0.978560090065002441
0.38040238618850708 0.586597323417663574 0.700181841850280762
0.529442310333251953 0.289376884698867798 0.638518869876861572
0.612896621227264404 0.818894267082214355 0.272040665149688721
0.370643556118011475 0.475795209407806396 0.620659530162811279
0.350234180688858032 0.427471548318862915 0.599712848663330078
0.407259136438369751 0.581790506839752197 0.757608771324157715
0.376752734184265137 0.60439068078994751 0.936646461486816406
0.345173120498657227 0.427787363529205322 0.995183408260345459
0.437023520469665527 0.593523979187011719 0.81630098819732666
0.3796883225440979 0.529236733913421631 0.620540142059326172
0.650819301605224609 0.705344855785369873 0.0887128189206123352
0.419556885957717896 0.408104836940765381 0.26262509822845459
0.384852975606918335 0.522008657455444336 0.864637970924377441
0.404528826475143433 0.449365228414535522 0.75920557975769043
0.430858701467514038 0.635463953018188477 0.38069528341293335
0.477940917015075684 0.404168307781219482 0.753583192825317383
0.356016397476196289 0.567628800868988037 0.975870311260223389
0.382372140884399414 0.620587170124053955 0.518390178680419922
0.484813541173934937 0.357775330543518066 0.720906555652618408
0.426585227251052856 0.477538198232650757 0.857762455940246582
0.469817847013473511 0.627530217170715332 0.363777279853820801
0.514494597911834717 0.320109158754348755 0.72169804573059082
0.559012472629547119 0.23182341456413269 0.560043275356292725
0.511041343212127686 0.431818485260009766 0.12268364429473877
0.41439935564994812 0.603380143642425537 0.660645067691802979
0.487079977989196777 0.239588752388954163 0.540208816528320312
0.574394881725311279 0.190538883209228516 0.305432498455047607
0.344986766576766968 0.451949387788772583 0.959151744842529297
0.372986465692520142 0.462962836027145386 0.758392691612243652
0.412127971649169922 0.53204500675201416 0.85446012020111084
0.523490965366363525 0.674787223339080811 0.203556939959526062
0.371754318475723267 0.582901120185852051 0.878493189811706543
0.386290580034255981 0.511946201324462891 0.70100557804107666
0.526050209999084473 0.24393734335899353 0.592175483703613281
0.474323302507400513 0.287520259618759155 0.642975389957427979
0.540784597396850586 0.220204755663871765 0.400372773408889771
0.401804238557815552 0.458877503871917725 0.84776604175567627
0.517818868160247803 0.344978660345077515 0.701282918453216553
0.385837078094482422 0.467362314462661743 0.874245822429656982
0.493739724159240723 0.678109169006347656 0.209301769733428955
0.444433540105819702 0.441659718751907349 0.299214184284210205
0.445174872875213623 0.530304312705993652 0.15987183153629303
0.441815793514251709 0.437332749366760254 0.219874992966651917
0.457638978958129883 0.401411950588226318 0.164027184247970581
0.523858308792114258 0.568620562553405762 0.0900294706225395203
0.500180661678314209 0.416777610778808594 0.108753681182861328
0.407655477523803711 0.517099142074584961 0.863357663154602051
0.52294623851776123 0.21478523313999176 0.438852578401565552
0.47003626823425293 0.556997179985046387 0.130948171019554138
0.429118722677230835 0.661804616451263428 0.6801949143409729
0.531623542308807373 0.579330801963806152 0.0850667580962181091
0.387925237417221069 0.517445802688598633 0.601696372032165527
0.437243819236755371 0.624415397644042969 0.69940263032913208
0.381076693534851074 0.596824347972869873 0.959836423397064209
0.524534106254577637 0.561291098594665527 0.125561967492103577
0.440077632665634155 0.527354061603546143 0.260337620973587036
0.623708665370941162 0.833772838115692139 0.281178802251815796
0.412415742874145508 0.374105185270309448 0.675773084163665771
0.400627076625823975 0.474801331758499146 0.991452574729919434
0.530380070209503174 0.218296051025390625 0.420925945043563843
0.358982950448989868 0.400837481021881104 0.919658362865447998
0.399721533060073853 0.649016916751861572 0.698887944221496582
0.394161969423294067 0.481933385133743286 0.64335024356842041
0.500854432582855225 0.424222767353057861 0.107673503458499908
0.398531526327133179 0.587591767311096191 0.837074756622314453
0.421245664358139038 0.393229573965072632 0.938989341259002686
0.415094614028930664 0.504553318023681641 0.758471906185150146
0.367441803216934204 0.571013927459716797 0.45759621262550354
0.617200672626495361 0.693966031074523926 0.130095541477203369
0.415787816047668457 0.600151896476745605 0.862260282039642334
0.591326534748077393 0.181098237633705139 0.320848345756530762
0.526466608047485352 0.272484928369522095 0.53719174861907959
0.44276919960975647 0.610180020332336426 0.441827923059463501
0.517215132713317871 0.295343846082687378 0.678299784660339355
0.388036072254180908 0.54878532886505127 0.341109007596969604
0.384020686149597168 0.515661478042602539 0.540208101272583008
0.425110757350921631 0.569934725761413574 0.260932683944702148
0.390597522258758545 0.604372739791870117 0.885708272457122803
0.589549899101257324 0.834039092063903809 0.319743454456329346
0.480984717607498169 0.665387570858001709 0.242501124739646912
0.360845059156417847 0.500786960124969482 0.540208101272583008
0.369020313024520874 0.404386848211288452 0.479087173938751221
0.437519222497940063 0.578638315200805664 0.219874247908592224
0.365744113922119141 0.588910043239593506 0.580869793891906738
0.400514960289001465 0.462744057178497314 0.681399941444396973
0.392580956220626831 0.39244493842124939 0.715607821941375732
0.33600914478302002 0.51982647180557251 0.620807945728302002
0.573779106140136719 0.179305031895637512 0.358321845531463623
0.433211535215377808 0.509129822254180908 0.342176288366317749
0.337043225765228271 0.442696094512939453 0.978262960910797119
0.438597649335861206 0.597975730895996094 0.816631436347961426
0.561693727970123291 0.187896788120269775 0.401378273963928223
0.372545093297958374 0.552246212959289551 0.362154066562652588
0.437795042991638184 0.700843513011932373 0.600179135799407959
0.399996399879455566 0.616214931011199951 0.562324583530426025
0.559508740901947021 0.178892865777015686 0.342851549386978149
0.418894976377487183 0.410923093557357788 0.921038806438446045
0.42392006516456604 0.587478816509246826 0.324893027544021606
0.421730220317840576 0.548637509346008301 0.839318692684173584
0.481568276882171631 0.544669866561889648 0.136085450649261475
0.438393652439117432 0.569731295108795166 0.180494681000709534
0.443741381168365479 0.400118768215179443 0.242685064673423767
0.356066733598709106 0.485214978456497192 0.781203150749206543
0.406465440988540649 0.380017280578613281 0.936756789684295654
0.401506721973419189 0.41002202033996582 0.815913975238800049
0.520417094230651855 0.23084355890750885 0.498555004596710205
0.441771596670150757 0.555170953273773193 0.706163346767425537
0.415027529001235962 0.387444734573364258 0.879710912704467773
0.521557867527008057 0.798863649368286133 0.399935662746429443
0.456398457288742065 0.580917596817016602 0.169461667537689209
0.334121644496917725 0.521254360675811768 0.648606657981872559
0.349628537893295288 0.600752770900726318 0.941666960716247559
0.588679194450378418 0.213971912860870361 0.405331194400787354
0.388356953859329224 0.599761426448822021 0.597744226455688477
0.550070881843566895 0.594207942485809326 0.0865457728505134583
0.372746080160140991 0.533314108848571777 0.560248494148254395
0.534400701522827148 0.203587010502815247 0.460868924856185913
0.569433271884918213 0.20826113224029541 0.500439643859863281
0.565400600433349609 0.247691333293914795 0.559051871299743652
0.447206676006317139 0.423948138952255249 0.732607722282409668
0.518522024154663086 0.550173461437225342 0.107872374355792999
0.37128603458404541 0.464883714914321899 0.722193717956542969
0.365630567073822021 0.4766654372215271 0.779562056064605713
0.391797542572021484 0.523928284645080566 0.761116683483123779
0.421051859855651855 0.418568581342697144 0.797208547592163086
0.387622267007827759 0.551373422145843506 0.859748899936676025
0.480846792459487915 0.715134024620056152 0.460075676441192627
0.399920612573623657 0.526134371757507324 0.659218370914459229
0.561058342456817627 0.197987407445907593 0.325048536062240601
0.391267627477645874 0.406773924827575684 0.458091914653778076
0.359435558319091797 0.570113480091094971 0.621419787406921387
0.614136397838592529 0.84363025426864624 0.28136327862739563
0.387954473495483398 0.387017279863357544 0.619548022747039795
0.391871482133865356 0.561608374118804932 0.320338994264602661
0.541265666484832764 0.409635275602340698 0.0871097147464752197
0.382531225681304932 0.394965261220932007 0.82434314489364624
0.390597492456436157 0.388568639755249023 0.899093270301818848
0.49485701322555542 0.575369775295257568 0.141606107354164124
0.346960663795471191 0.515897393226623535 0.518858909606933594
0.387849777936935425 0.608401775360107422 0.678671479225158691
0.349723398685455322 0.401746183633804321 0.579878449440002441
0.501419544219970703 0.725099444389343262 0.445000797510147095
0.557607471942901611 0.806693017482757568 0.327310174703598022
0.591129660606384277 0.574898064136505127 0.0486179925501346588
0.588152885437011719 0.209463551640510559 0.380537599325180054
0.399059176445007324 0.416288703680038452 0.598721444606781006
0.407774895429611206 0.456305354833602905 0.992255330085754395
0.413239955902099609 0.473807930946350098 0.941865384578704834
0.353885471820831299 0.426773518323898315 0.46186104416847229
0.398371994495391846 0.583923161029815674 0.619854390621185303
0.362915396690368652 0.41043698787689209 0.401364177465438843
0.421826183795928955 0.613616526126861572 0.500148892402648926
0.380869686603546143 0.597590327262878418 0.524184942245483398
0.470111817121505737 0.429692715406417847 0.142999261617660522
0.445341169834136963 0.412320911884307861 0.160511165857315063
0.440859168767929077 0.401411563158035278 0.681873440742492676
0.456052899360656738 0.748983561992645264 0.500142574310302734
0.424212723970413208 0.591132283210754395 0.740541040897369385
0.466367185115814209 0.694571554660797119 0.520671188831329346
0.406489968299865723 0.395040184259414673 0.979552209377288818
0.364613771438598633 0.39526936411857605 0.439150184392929077
0.627121269702911377 0.587355554103851318 0.00803470052778720856
0.529766738414764404 0.279427081346511841 0.659866452217102051
0.341305404901504517 0.527138829231262207 0.720507442951202393
0.41231834888458252 0.502569794654846191 0.936099708080291748
0.434234976768493652 0.522620797157287598 0.241673171520233154
0.367390602827072144 0.439485549926757812 0.780067265033721924
0.396448850631713867 0.59121018648147583 0.522783994674682617
0.438776165246963501 0.42223849892616272 0.182188928127288818
0.373142808675765991 0.444139271974563599 0.478343695402145386
0.414652079343795776 0.452160567045211792 0.778823494911193848
0.403804898262023926 0.539288520812988281 0.439563721418380737
0.432131797075271606 0.551958978176116943 0.40235629677772522
0.390597522258758545 0.563065946102142334 0.459757566452026367
0.482710599899291992 0.421208411455154419 0.737764120101928711
0.454068928956985474 0.663726150989532471 0.418918311595916748
0.470849990844726562 0.316518574953079224 0.659217596054077148
0.56514132022857666 0.187115892767906189 0.416537344455718994
0.423396319150924683 0.369026660919189453 0.734035134315490723
0.46972423791885376 0.416287928819656372 0.73974764347076416
0.458333671092987061 0.535298049449920654 0.140903189778327942
0.398879915475845337 0.509360074996948242 0.660100638866424561
0.468430191278457642 0.574043571949005127 0.163213565945625305
0.477100789546966553 0.601480364799499512 0.835999190807342529
0.449109852313995361 0.414558351039886475 0.743516743183135986
0.37191617488861084 0.495988368988037109 0.793381929397583008
0.538367867469787598 0.712327539920806885 0.185163825750350952
0.368481576442718506 0.442897558212280273 0.603402972221374512
0.369572430849075317 0.377406984567642212 0.680702865123748779
0.52758026123046875 0.299473047256469727 0.622424542903900146
0.478506326675415039 0.405037432909011841 0.158783048391342163
0.448118835687637329 0.39357459545135498 0.181309327483177185
0.386868536472320557 0.528069257736206055 0.642605900764465332
0.369922906160354614 0.517165899276733398 0.441062390804290771
0.601244091987609863 0.840464770793914795 0.297671794891357422
0.402498394250869751 0.513255894184112549 0.716738879680633545
0.573859751224517822 0.569344997406005859 0.0677826404571533203
0.384996503591537476 0.502814233303070068 0.578886330127716064
0.425725966691970825 0.690406203269958496 0.541289448738098145
0.415782749652862549 0.422239243984222412 0.243676453828811646
0.344375193119049072 0.464090704917907715 0.894559204578399658
0.477665632963180542 0.36937221884727478 0.741532444953918457
0.38663056492805481 0.497013837099075317 0.955749988555908203
0.506830155849456787 0.408168286085128784 0.10673590749502182
0.475060403347015381 0.661249637603759766 0.320040732622146606
0.368775725364685059 0.402993768453598022 0.973205149173736572
0.424074888229370117 0.382568597793579102 0.687938988208770752
0.423208296298980713 0.456291794776916504 0.3408680260181427
0.336867749691009521 0.484595924615859985 0.696190357208251953
0.359796732664108276 0.547198593616485596 0.437067478895187378
0.383655279874801636 0.585648179054260254 0.887319803237915039
0.381490379571914673 0.600833415985107422 0.719840526580810547
0.347143709659576416 0.405775308609008789 0.580692112445831299
0.419767558574676514 0.573519051074981689 0.398190230131149292
0.421341747045516968 0.683992564678192139 0.640374541282653809
0.375721335411071777 0.533732712268829346 0.74212723970413208
0.420746952295303345 0.604912996292114258 0.800144672393798828
0.517151057720184326 0.339724928140640259 0.714552164077758789
0.42029571533203125 0.381194263696670532 0.737449824810028076
0.417374849319458008 0.572823584079742432 0.817897498607635498
0.336490273475646973 0.406370371580123901 0.659619748592376709
0.395556241273880005 0.607312917709350586 0.781606376171112061
0.370073586702346802 0.611906886100769043 0.53984367847442627
0.33962547779083252 0.499892443418502808 0.601166129112243652
0.389010697603225708 0.470927834510803223 0.841579735279083252
0.457044303417205811 0.567032992839813232 0.70272672176361084
0.554500699043273926 0.580917596817016602 0.0687393024563789368
0.398531436920166016 0.381576776504516602 0.719212770462036133
0.398711740970611572 0.459671825170516968 0.782194912433624268
0.407937943935394287 0.605414688587188721 0.921038806438446045
0.397341370582580566 0.597754538059234619 0.8618011474609375
0.361091494560241699 0.502272665500640869 0.805785059928894043
0.371321380138397217 0.572061657905578613 0.418332785367965698
0.422297358512878418 0.402653425931930542 0.241692930459976196
0.447100281715393066 0.65629047155380249 0.322024255990982056
0.490169405937194824 0.352841854095458984 0.661201119422912598
0.362652361392974854 0.439411789178848267 0.561035037040710449
0.409866601228713989 0.612396955490112305 0.439168691635131836
0.376068443059921265 0.448519527912139893 0.842565774917602539
0.394401431083679199 0.438617497682571411 0.600704967975616455
0.415586978197097778 0.544547915458679199 0.241474732756614685
0.422829031944274902 0.673596382141113281 0.660209715366363525
0.396368891000747681 0.415789246559143066 0.457399070262908936
0.433828383684158325 0.695412993431091309 0.480621129274368286
0.354507863521575928 0.531287729740142822 0.699388742446899414
0.342993706464767456 0.467495739459991455 0.648308634757995605
0.469139128923416138 0.677620232105255127 0.40183722972869873
0.372738182544708252 0.399584442377090454 0.99510800838470459
0.449810147285461426 0.687308371067047119 0.519699215888977051
0.375225484371185303 0.575760483741760254 0.580998897552490234
0.446134567260742188 0.563065946102142334 0.162953570485115051
0.5339508056640625 0.68332064151763916 0.186913788318634033
0.430267930030822754 0.635463953018188477 0.71680295467376709
0.358861625194549561 0.397627949714660645 0.719959676265716553
0.412415862083435059 0.403347551822662354 0.735384225845336914
0.524483084678649902 0.423230648040771484 0.0876644179224967957
0.379886656999588013 0.502974212169647217 0.519926965236663818
0.358944237232208252 0.410582602024078369 0.844674587249755859
0.364812105894088745 0.429043889045715332 0.798062264919281006
0.445840328931808472 0.530634045600891113 0.219874992966651917
0.392624050378799438 0.557053923606872559 0.648805141448974609
0.402907520532608032 0.605030298233032227 0.900047063827514648
0.352761268615722656 0.433564752340316772 0.720011413097381592
0.359050542116165161 0.544222891330718994 0.760323405265808105
0.501342594623565674 0.435342967510223389 0.144117787480354309
0.407507747411727905 0.413630038499832153 0.991456329822540283
0.443552762269973755 0.633639514446258545 0.482615947723388672
0.422264814376831055 0.697002053260803223 0.597930788993835449
0.547366797924041748 0.229060173034667969 0.581917762756347656
0.494533151388168335 0.368808925151824951 0.683019816875457764
0.354502826929092407 0.544521152973175049 0.477728456258773804
0.376498520374298096 0.426891505718231201 0.344842225313186646
0.424316614866256714 0.43984571099281311 0.779944300651550293
0.621610760688781738 0.583739340305328369 0.0235616620630025864
0.490772753953933716 0.274269908666610718 0.561159133911132812
0.420548677444458008 0.513387024402618408 0.375579208135604858
0.556929349899291992 0.694968700408935547 0.165625914931297302
0.407513409852981567 0.599760651588439941 0.540042877197265625
0.392892152070999146 0.624282240867614746 0.680263102054595947
0.430267930030822754 0.441891103982925415 0.219983771443367004
0.381870150566101074 0.538113653659820557 0.362019002437591553
0.479715526103973389 0.662166059017181396 0.381430149078369141
0.411225825548171997 0.626641571521759033 0.642435789108276367
0.407897382974624634 0.441700160503387451 0.99244391918182373
0.368878304958343506 0.44673493504524231 0.378554105758666992
0.383604615926742554 0.454242229461669922 0.348999917507171631
0.456548154354095459 0.404893577098846436 0.202023342251777649
0.412366658449172974 0.575671136379241943 0.341859430074691772
0.590889811515808105 0.830317914485931396 0.329415082931518555
0.559670090675354004 0.240848302841186523 0.454059898853302002
0.439694970846176147 0.540812075138092041 0.28218570351600647
0.417698055505752563 0.449020802974700928 0.724405348300933838
0.38960576057434082 0.568996906280517578 0.77835160493850708
0.453283220529556274 0.641043722629547119 0.321851462125778198
0.539106667041778564 0.188530087471008301 0.419939428567886353
0.364160895347595215 0.393771380186080933 0.960709214210510254
0.504647970199584961 0.770779192447662354 0.462244331836700439
0.556076467037200928 0.263559401035308838 0.579878449440002441
0.639327645301818848 0.835414290428161621 0.260857135057449341
0.419646859169006348 0.441676974296569824 0.883076310157775879
0.604510784149169922 0.589843809604644775 0.0284678544849157333
0.443064302206039429 0.577101290225982666 0.199841096997261047
0.522697567939758301 0.304221957921981812 0.70285499095916748
0.492549479007720947 0.738557636737823486 0.48578217625617981
0.426976948976516724 0.421049147844314575 0.722172319889068604
0.416509419679641724 0.588784992694854736 0.939961254596710205
0.585726559162139893 0.165985003113746643 0.320041477680206299
0.42001459002494812 0.408076167106628418 0.363678097724914551
0.628616631031036377 0.701221048831939697 0.125359088182449341
0.392116069793701172 0.486503690481185913 0.978187143802642822
0.431677043437957764 0.356276869773864746 0.741953372955322266
0.372746080160140991 0.559919416904449463 0.474753528833389282
0.375721275806427002 0.594306528568267822 0.721859455108642578
0.558792531490325928 0.266525119543075562 0.520373702049255371
0.520516097545623779 0.258183509111404419 0.482439398765563965
0.657178819179534912 0.841746687889099121 0.229267463088035583
0.363080650568008423 0.570276379585266113 0.993125975131988525
0.516462147235870361 0.251422286033630371 0.483084321022033691
0.338553160429000854 0.515463054180145264 0.580870568752288818
0.410451263189315796 0.425214141607284546 0.659218370914459229
0.373737841844558716 0.375962704420089722 0.660209715366363525
0.405057162046432495 0.600752770900726318 0.71685260534286499
0.506433486938476562 0.29403117299079895 0.60665518045425415
0.41717115044593811 0.588165104389190674 0.857170522212982178
0.441902339458465576 0.436321467161178589 0.279379010200500488
0.440581470727920532 0.40134093165397644 0.260193824768066406
0.482830017805099487 0.382954448461532593 0.737565398216247559
0.466527283191680908 0.432156085968017578 0.184171691536903381
0.420349597930908203 0.542041599750518799 0.221884161233901978
0.349178820848464966 0.408748477697372437 0.560044050216674805
0.388004392385482788 0.517813980579376221 0.580870568752288818
0.472837388515472412 0.334171086549758911 0.658490955829620361
0.484616339206695557 0.742736399173736572 0.427504688501358032
0.349737584590911865 0.437372654676437378 0.644341588020324707
0.574753344058990479 0.184496358036994934 0.383513271808624268
0.356736421585083008 0.432156085968017578 0.438058853149414062
0.41043245792388916 0.686122119426727295 0.580143570899963379
0.375347912311553955 0.585848867893218994 0.420500695705413818
0.393572717905044556 0.518775224685668945 0.780210614204406738
0.468350708484649658 0.303379565477371216 0.680223464965820312
0.363820403814315796 0.54462730884552002 0.518697917461395264
0.579029440879821777 0.161999300122261047 0.295556962490081787
0.393572717905044556 0.516363143920898438 0.660799026489257812
0.442548543214797974 0.56468278169631958 0.302189826965332031
0.4044819176197052 0.542137086391448975 0.721658468246459961
0.345968902111053467 0.535562276840209961 0.649300813674926758
0.432161211967468262 0.655100405216217041 0.361773490905761719
0.401521205902099609 0.387725293636322021 0.662391722202301025
0.403016954660415649 0.621503353118896484 0.726517856121063232
0.404927968978881836 0.477719128131866455 0.778227865695953369
0.408845692873001099 0.413093537092208862 0.736076951026916504
0.340797543525695801 0.434885412454605103 0.940873265266418457
0.433040112257003784 0.5927695631980896 0.699879348278045654
0.483292490243911743 0.410771220922470093 0.126110240817070007
0.554422259330749512 0.695480823516845703 0.180303454399108887
0.52479398250579834 0.325047671794891357 0.679053544998168945
0.37373778223991394 0.530172348022460938 0.717730998992919922
0.389223605394363403 0.617778301239013672 0.684011995792388916
0.38464704155921936 0.46994173526763916 0.799725890159606934
0.350342750549316406 0.4298686683177948 0.499547123908996582
0.395073831081390381 0.584091544151306152 0.833448827266693115
0.494398355484008789 0.25940355658531189 0.51880180835723877
0.473903805017471313 0.665223419666290283 0.357251107692718506
0.470040738582611084 0.756814420223236084 0.47963222861289978
0.463599622249603271 0.736894071102142334 0.515411376953125
0.384646952152252197 0.451743036508560181 0.844182610511779785
0.433362036943435669 0.659266173839569092 0.641456365585327148
0.335269033908843994 0.414305180311203003 0.683615624904632568
0.513014853000640869 0.767231225967407227 0.403297752141952515
0.34372827410697937 0.516454398632049561 0.559051871299743652
0.393473565578460693 0.431164711713790894 0.560043275356292725
0.393363445997238159 0.431758701801300049 0.478719830513000488
0.578118801116943359 0.813611328601837158 0.295871853828430176
0.498844653367996216 0.712959229946136475 0.478653430938720703
0.404556721448898315 0.659860849380493164 0.660209715366363525
0.411841928958892822 0.46924784779548645 0.739549696445465088
0.337051242589950562 0.416288703680038452 0.657052993774414062
0.483160465955734253 0.589510321617126465 0.79610443115234375
0.442997455596923828 0.555898666381835938 0.321796506643295288
0.586963534355163574 0.162895351648330688 0.28463098406791687
0.3786965012550354 0.450220286846160889 0.716425716876983643
0.550008773803710938 0.247661605477333069 0.577323973178863525
0.375895917415618896 0.53147435188293457 0.839479982852935791
0.410878509283065796 0.514049172401428223 0.323437362909317017
0.657476186752319336 0.714505910873413086 0.0886856690049171448
0.429106801748275757 0.661955118179321289 0.400372028350830078
0.4178658127784729 0.39149397611618042 0.337406814098358154
0.652488291263580322 0.838409304618835449 0.236238077282905579
0.438837289810180664 0.6151542067527771 0.818888843059539795
0.495723247528076172 0.536850512027740479 0.145993933081626892
0.399655967950820923 0.573459625244140625 0.321614563465118408
0.342390060424804688 0.472823828458786011 0.741965830326080322
0.408786267042160034 0.60440218448638916 0.518985331058502197
0.634794294834136963 0.707968473434448242 0.129302427172660828
0.367410510778427124 0.510366082191467285 0.897436082363128662
0.518456101417541504 0.799895763397216797 0.359274387359619141
0.375721275806427002 0.527171730995178223 0.921038806438446045
0.383655279874801636 0.451329588890075684 0.696318209171295166
0.355379313230514526 0.585767567157745361 0.644937396049499512
0.388614088296890259 0.631502091884613037 0.478720575571060181
0.412108391523361206 0.500586271286010742 0.700871467590332031
0.485877186059951782 0.409319788217544556 0.718723118305206299
0.35413891077041626 0.396452784538269043 0.560935854911804199
0.421568840742111206 0.707956075668334961 0.501570701599121094
0.363567978143692017 0.545215070247650146 0.400372803211212158
0.417044550180435181 0.527908921241760254 0.420604050159454346
0.471957623958587646 0.402344018220901489 0.704706370830535889
0.396929293870925903 0.596006989479064941 0.958203554153442383
0.488948971033096313 0.533684849739074707 0.128185436129570007
0.349103033542633057 0.491514027118682861 0.915088295936584473
0.591902256011962891 0.583756327629089355 0.0649535655975341797
0.420092999935150146 0.497611403465270996 0.857130944728851318
0.434168577194213867 0.66710352897644043 0.580869793891906738
0.419853746891021729 0.5210837721824646 0.878939270973205566
0.381176948547363281 0.433345764875411987 0.735915124416351318
0.518383920192718506 0.704733669757843018 0.220452263951301575
0.368246912956237793 0.398436278104782104 0.499547123908996582
0.406029641628265381 0.493445247411727905 0.663026750087738037
0.364255815744400024 0.507727324962615967 0.916476726531982422
0.405473679304122925 0.374292075634002686 0.919531345367431641
0.513876676559448242 0.757449150085449219 0.439050972461700439
0.39059746265411377 0.554339230060577393 0.880876719951629639
0.419255763292312622 0.508047580718994141 0.861301243305206299
0.347322285175323486 0.520719349384307861 0.738557517528533936
0.522233366966247559 0.701910674571990967 0.183828458189964294
0.536480486392974854 0.285672247409820557 0.579481840133666992
0.397539675235748291 0.443263769149780273 0.619923770427703857
0.342026710510253906 0.422834306955337524 0.676269054412841797
0.383371263742446899 0.593725979328155518 0.99370884895324707
0.441818505525588989 0.419590115547180176 0.259544581174850464
0.391402691602706909 0.546833395957946777 0.961739838123321533
0.359425365924835205 0.554807901382446289 0.955841004848480225
0.434152960777282715 0.700236022472381592 0.523051440715789795
