ply
format ascii 1.0
element vertex 761
property float x
property float y
property float z
end_header
0.451555073261260986 0.37316596508026123 0.356407999992370605
0.420127034187316895 0.679528892040252686 0.0585691891610622406
0.404952198266983032 0.415887206792831421 0.525377273559570312
0.357878237962722778 0.511582791805267334 0.464578747749328613
0.620824515819549561 0.392034322023391724 0.525952339172363281
0.323808729648590088 0.396932035684585571 0.0900987535715103149
0.514128983020782471 0.649288594722747803 0.151324346661567688
0.694416463375091553 0.515065550804138184 0.54599529504776001
0.405266851186752319 0.522377133369445801 0.559745311737060547
0.379817932844161987 0.483653664588928223 0.425924599170684814
0.603573262691497803 0.594832897186279297 0.150677591562271118
0.410666763782501221 0.393833369016647339 0.740587234497070312
0.395721018314361572 0.655446946620941162 0.0453873127698898315
0.643948793411254883 0.487144201993942261 0.0440387912094593048
0.485940992832183838 0.516524612903594971 0.810736954212188721
0.435260862112045288 0.402305632829666138 0.534275054931640625
0.466882288455963135 0.540648818016052246 0.738005220890045166
0.418733775615692139 0.417479723691940308 0.184103891253471375
0.338001251220703125 0.430049121379852295 0.147171050310134888
0.350695222616195679 0.387905895709991455 0.133340716361999512
0.603643119335174561 0.408101469278335571 0.989998519420623779
0.387640595436096191 0.453645497560501099 0.702960431575775146
0.558624207973480225 0.479133814573287964 0.951586663722991943
0.626987695693969727 0.570249795913696289 0.59706580638885498
0.400975137948989868 0.345821797847747803 0.129038631916046143
0.583774864673614502 0.534878790378570557 0.716966927051544189
0.600194633007049561 0.362675189971923828 0.201943233609199524
0.599671483039855957 0.344714254140853882 0.130157560110092163
0.481775790452957153 0.381445705890655518 0.561916649341583252
0.687572658061981201 0.481772333383560181 0.0283747017383575439
0.322629302740097046 0.552713096141815186 0.0269472543150186539
0.495148897171020508 0.628348588943481445 0.591501891613006592
0.396270602941513062 0.410494029521942139 0.458968818187713623
0.678750514984130859 0.412777483463287354 0.60643160343170166
0.660499274730682373 0.389117002487182617 0.966338992118835449
0.618588864803314209 0.474015176296234131 0.838235020637512207
0.522401094436645508 0.348449856042861938 0.219153299927711487
0.581815540790557861 0.569791555404663086 0.785802602767944336
0.660315275192260742 0.629846632480621338 0.0755165070295333862
0.631283938884735107 0.502408266067504883 0.408042967319488525
0.490336149930953979 0.561649620532989502 0.288767129182815552
0.348192185163497925 0.625287115573883057 0.00974124390631914139
0.644042074680328369 0.634112536907196045 0.107148557901382446
0.522897601127624512 0.318170279264450073 0.116433233022689819
0.586991190910339355 0.316528737545013428 0.0684676319360733032
0.374460756778717041 0.458284199237823486 0.252988934516906738
0.627831041812896729 0.390474647283554077 0.441960901021957397
0.573766887187957764 0.561780929565429688 0.298697710037231445
0.497119545936584473 0.510880768299102783 0.0573685653507709503
0.672357857227325439 0.487773299217224121 0.289503753185272217
0.641915202140808105 0.642130672931671143 0.0593151934444904327
0.417440205812454224 0.66473996639251709 0.0357649251818656921
0.626950740814208984 0.570967316627502441 0.448995590209960938
0.339918345212936401 0.606774628162384033 0.044556688517332077
0.51917731761932373 0.371527165174484253 0.733694255352020264
0.519706010818481445 0.584790170192718506 0.714951992034912109
0.377225041389465332 0.511244714260101318 0.0517372637987136841
0.446677863597869873 0.60507887601852417 0.521099269390106201
0.359106212854385376 0.626461386680603027 0.0315892919898033142
0.677114129066467285 0.54567331075668335 0.0135637121275067329
0.659784197807312012 0.463410228490829468 0.249657884240150452
0.527140438556671143 0.554192483425140381 0.244529575109481812
0.559605002403259277 0.551522493362426758 0.673507273197174072
0.380376338958740234 0.401953518390655518 0.937297821044921875
0.600397109985351562 0.460857242345809937 0.975658297538757324
0.413850992918014526 0.328592747449874878 0.0340113341808319092
0.497743606567382812 0.39526715874671936 0.0554649680852890015
0.60474008321762085 0.548066377639770508 0.812103331089019775
0.686955690383911133 0.502809345722198486 0.14069916307926178
0.656894385814666748 0.404869675636291504 0.640172600746154785
0.551413059234619141 0.450864225625991821 0.19870738685131073
0.499343395233154297 0.683264434337615967 0.132627353072166443
0.619934260845184326 0.373769938945770264 0.786220312118530273
0.542328417301177979 0.545900225639343262 0.680401265621185303
0.604968547821044922 0.540810465812683105 0.056720539927482605
0.637090682983398438 0.600884139537811279 0.150859087705612183
0.337319433689117432 0.374720990657806396 0.0762055441737174988
0.563576996326446533 0.49804040789604187 0.238207221031188965
0.438142567873001099 0.377809256315231323 0.478602498769760132
0.357379823923110962 0.394605934619903564 0.0357248000800609589
0.654357969760894775 0.631559848785400391 0.0991732105612754822
0.641156613826751709 0.401124894618988037 0.511075198650360107
0.402989864349365234 0.383513718843460083 0.959067702293395996
0.403576135635375977 0.394369006156921387 0.0295216664671897888
0.370785981416702271 0.477762132883071899 0.35805848240852356
0.482132852077484131 0.574381351470947266 0.368189364671707153
0.56596529483795166 0.407699733972549438 0.961285173892974854
0.370583713054656982 0.417489588260650635 0.547688841819763184
0.569218158721923828 0.361964881420135498 0.0377666093409061432
0.438851594924926758 0.451777815818786621 0.159953653812408447
0.562796890735626221 0.361931473016738892 0.518384754657745361
0.365005820989608765 0.436277180910110474 0.473289161920547485
0.520499587059020996 0.458572268486022949 0.0555576160550117493
0.481940984725952148 0.360786795616149902 0.0531705282628536224
0.588479399681091309 0.474978476762771606 0.235344752669334412
0.648389458656311035 0.434710532426834106 0.584353268146514893
0.603059887886047363 0.583635210990905762 0.438105642795562744
0.697878837585449219 0.491615474224090576 0.758884012699127197
0.42300337553024292 0.382526636123657227 0.18282654881477356
0.335202425718307495 0.395156770944595337 0.0527257658541202545
0.334060043096542358 0.482550472021102905 0.319115787744522095
0.473208457231521606 0.702638089656829834 0.085911087691783905
0.419911116361618042 0.410403013229370117 0.647483229637145996
0.475531488656997681 0.372022539377212524 0.470659106969833374
0.567621707916259766 0.412425756454467773 0.159740611910820007
0.373635023832321167 0.43843543529510498 0.445347875356674194
0.382889240980148315 0.374413162469863892 0.0268791615962982178
0.460850775241851807 0.390546143054962158 0.556141078472137451
0.422217696905136108 0.40517038106918335 0.442054539918899536
0.580117285251617432 0.600441694259643555 0.440723061561584473
0.435846865177154541 0.358281999826431274 0.0109026376157999039
0.500128448009490967 0.614050865173339844 0.466512709856033325
0.499272972345352173 0.64916914701461792 0.151380032300949097
0.560556471347808838 0.64100569486618042 0.0345963165163993835
0.605280160903930664 0.532281994819641113 0.156214699149131775
0.564053654670715332 0.695387959480285645 0.0909102857112884521
0.426122099161148071 0.400276482105255127 0.389029860496520996
0.385925382375717163 0.434519648551940918 0.375730305910110474
0.366240382194519043 0.467127829790115356 0.495294392108917236
0.338126182556152344 0.503219842910766602 0.288797497749328613
0.429157465696334839 0.554107546806335449 0.403645992279052734
0.542181730270385742 0.299663692712783813 0.0751056522130966187
0.476220011711120605 0.375745177268981934 0.770897865295410156
0.401925414800643921 0.407809346914291382 0.327127575874328613
0.433865517377853394 0.545587837696075439 0.587649106979370117
0.371438831090927124 0.430622875690460205 0.397740334272384644
0.627672195434570312 0.36561208963394165 0.114048585295677185
0.476371407508850098 0.296005845069885254 0.0755727067589759827
0.352559834718704224 0.498990803956985474 0.223122790455818176
0.67007070779800415 0.462366312742233276 0.856582403182983398
0.49144512414932251 0.410571575164794922 0.97704547643661499
0.506280958652496338 0.581866741180419922 0.62628549337387085
0.665255606174468994 0.394952952861785889 0.569184243679046631
0.685460686683654785 0.512619197368621826 0.128225535154342651
0.340768188238143921 0.629207193851470947 0.0904091000556945801
0.579044461250305176 0.362251430749893188 0.207730725407600403
0.39836883544921875 0.675893843173980713 0.0959214121103286743
0.373944610357284546 0.396359175443649292 0.148904100060462952
0.380294322967529297 0.474131882190704346 0.441740632057189941
0.540762901306152344 0.591949343681335449 0.150192663073539734
0.677284121513366699 0.411009013652801514 0.484915792942047119
0.544355094432830811 0.581403911113739014 0.7128104567527771
0.427986711263656616 0.496690303087234497 0.59368896484375
0.568234443664550781 0.526072800159454346 0.23562602698802948
0.642766296863555908 0.373846650123596191 0.806825697422027588
0.611049890518188477 0.609247803688049316 0.579027295112609863
0.32079005241394043 0.594444572925567627 0.0962884500622749329
0.361582279205322266 0.50019758939743042 0.366367459297180176
0.647662162780761719 0.441808760166168213 0.595379948616027832
0.686941623687744141 0.428161889314651489 0.0596851594746112823
0.660788655281066895 0.373363137245178223 0.0764597058296203613
0.585475683212280273 0.362090200185775757 0.397393494844436646
0.458497613668441772 0.577314972877502441 0.309729427099227905
0.45996403694152832 0.587938010692596436 0.440505355596542358
0.543035686016082764 0.320898115634918213 0.0293421931564807892
0.602927207946777344 0.404486149549484253 0.1474771648645401
0.475816428661346436 0.402584582567214966 0.820629298686981201
0.519154191017150879 0.349792778491973877 0.191247180104255676
0.462258964776992798 0.377817362546920776 0.46984398365020752
0.563700020313262939 0.571584224700927734 0.149949550628662109
0.538802146911621094 0.620362579822540283 0.60531306266784668
0.510203719139099121 0.583604216575622559 0.765498518943786621
0.685335516929626465 0.430633068084716797 0.504547357559204102
0.627547860145568848 0.537839114665985107 0.053944118320941925
0.388909846544265747 0.487364679574966431 0.213495925068855286
0.4503040611743927 0.566767394542694092 0.366885364055633545
0.669586718082427979 0.449854731559753418 0.257719814777374268
0.420067042112350464 0.389083236455917358 0.8830985426902771
0.309956789016723633 0.497275471687316895 0.0572837516665458679
0.303000569343566895 0.468097835779190063 0.0594144277274608612
0.309937030076980591 0.480543583631515503 0.0476389788091182709
0.301714122295379639 0.482423901557922363 0.0582120120525360107
0.298713415861129761 0.482508450746536255 0.0643880739808082581
0.295776039361953735 0.482904374599456787 0.0758440718054771423
0.309416592121124268 0.497409194707870483 0.047492150217294693
0.300951153039932251 0.498203873634338379 0.0583117455244064331
0.297701895236968994 0.498142272233963013 0.065286196768283844
0.294981658458709717 0.49763411283493042 0.0772327855229377747
0.298523068428039551 0.512420713901519775 0.0642797425389289856
0.462657421827316284 0.309013068675994873 0.0122042745351791382
0.554171204566955566 0.578405261039733887 0.402167409658432007
0.390049219131469727 0.506544530391693115 0.516196012496948242
0.420480042695999146 0.576891064643859863 0.455306291580200195
0.450510114431381226 0.352797001600265503 0.148037612438201904
0.604306340217590332 0.457361519336700439 0.055433318018913269
0.540329694747924805 0.303485065698623657 0.058667350560426712
0.584586858749389648 0.412778168916702271 0.970051288604736328
0.702787220478057861 0.478817194700241089 0.595871031284332275
0.677809417247772217 0.489878475666046143 0.817165493965148926
0.466310948133468628 0.467006802558898926 0.162252798676490784
0.397994458675384521 0.564854443073272705 0.185159459710121155
0.361559838056564331 0.412971317768096924 0.399488180875778198
0.605346977710723877 0.534534931182861328 0.853618204593658447
0.312778234481811523 0.584127187728881836 0.0893322527408599854
0.396421462297439575 0.521474361419677734 0.365741193294525146
0.462605267763137817 0.562409937381744385 0.748462319374084473
0.464037269353866577 0.692584455013275146 0.0553330853581428528
0.480429977178573608 0.594797372817993164 0.620358526706695557
0.541994094848632812 0.317059546709060669 0.117493532598018646
0.498637914657592773 0.575735092163085938 0.640721917152404785
0.63745570182800293 0.441827982664108276 0.87119603157043457
0.404607445001602173 0.589989960193634033 0.17312505841255188
0.581088781356811523 0.374738186597824097 0.199919417500495911
0.394960343837738037 0.663279831409454346 0.124015308916568756
0.381063252687454224 0.354304671287536621 0.139278948307037354
0.639222383499145508 0.64481651782989502 0.0867200270295143127
0.421062618494033813 0.370496630668640137 0.486457407474517822
0.410928517580032349 0.405579715967178345 0.668845534324645996
0.642136931419372559 0.533451199531555176 0.412743747234344482
0.642644762992858887 0.584513545036315918 0.150502413511276245
0.381777346134185791 0.596162497997283936 0.0261961445212364197
0.586088597774505615 0.551963746547698975 0.148677811026573181
0.519867300987243652 0.443009883165359497 0.14756600558757782
0.626822173595428467 0.639608085155487061 0.0434227101504802704
0.381423830986022949 0.514532089233398438 0.470307230949401855
0.684195756912231445 0.420319139957427979 0.485371440649032593
0.601263105869293213 0.521494150161743164 0.167121127247810364
0.417806416749954224 0.382487028837203979 0.253872007131576538
0.608783543109893799 0.539971530437469482 0.652923166751861572
0.385473251342773438 0.490556955337524414 0.470089524984359741
0.607257723808288574 0.390426844358444214 0.64425957202911377
0.422073662281036377 0.474883198738098145 0.179137334227561951
0.351607024669647217 0.420895785093307495 0.183526232838630676
0.32029491662979126 0.575544893741607666 0.107347778975963593
0.645648002624511719 0.444228500127792358 0.303750336170196533
0.687712967395782471 0.478318184614181519 0.45147278904914856
0.379229277372360229 0.622730016708374023 0.15095856785774231
0.650560081005096436 0.468657523393630981 0.315797150135040283
0.681614041328430176 0.597611546516418457 0.0695436969399452209
0.39588126540184021 0.434287548065185547 0.646067380905151367
0.496369481086730957 0.422664731740951538 0.809040665626525879
0.520356595516204834 0.61839061975479126 0.464272439479827881
0.617737293243408203 0.382523447275161743 0.485758721828460693
0.637738168239593506 0.434258967638015747 0.247541263699531555
0.499337911605834961 0.313685983419418335 0.114677876234054565
0.421824812889099121 0.375241696834564209 0.220112696290016174
0.58316493034362793 0.410064101219177246 0.794879138469696045
0.374857425689697266 0.351204007863998413 0.105739094316959381
0.41972959041595459 0.402837485074996948 0.183238163590431213
0.38503381609916687 0.390692442655563354 0.946355044841766357
0.624448478221893311 0.397963553667068481 0.349059402942657471
0.51801300048828125 0.432050794363021851 0.943264305591583252
0.62804710865020752 0.515631318092346191 0.398104816675186157
0.420074373483657837 0.315289109945297241 0.0603014156222343445
0.630929291248321533 0.425140649080276489 0.970160186290740967
0.605969250202178955 0.377547502517700195 0.533277451992034912
0.404692590236663818 0.456447809934616089 0.678473353385925293
0.439364463090896606 0.315061300992965698 0.0154603868722915649
0.383396536111831665 0.4046458899974823 0.470502138137817383
0.45964813232421875 0.372953087091445923 0.251519471406936646
0.381787598133087158 0.437030285596847534 0.640878915786743164
0.384796380996704102 0.415522724390029907 0.782234132289886475
0.384052664041519165 0.541075229644775391 0.547101497650146484
0.595576345920562744 0.391392111778259277 0.257365405559539795
0.474210351705551147 0.398279815912246704 0.189765870571136475
0.306996852159500122 0.4401664137840271 0.0662144571542739868
0.556167781352996826 0.359545409679412842 0.213358223438262939
0.382431060075759888 0.480881273746490479 0.178976327180862427
0.466464608907699585 0.556108713150024414 0.262964814901351929
0.453864932060241699 0.531876504421234131 0.253573417663574219
0.441713839769363403 0.529736459255218506 0.259324729442596436
0.458650261163711548 0.555420577526092529 0.301127821207046509
0.46193850040435791 0.572410881519317627 0.288293749094009399
0.457805514335632324 0.552486419677734375 0.288544356822967529
0.475278854370117188 0.563050150871276855 0.273328274488449097
0.462113171815872192 0.572494804859161377 0.273844659328460693
0.459652155637741089 0.551058292388916016 0.273080199956893921
0.454191744327545166 0.540645837783813477 0.260666310787200928
0.444098889827728271 0.542399883270263672 0.2736472487449646
0.402418792247772217 0.556336283683776855 0.351178199052810669
0.359143942594528198 0.41054651141166687 0.148652732372283936
0.627633213996887207 0.509589135646820068 0.412908315658569336
0.518567681312561035 0.517719089984893799 0.864181637763977051
0.482142001390457153 0.582191586494445801 0.641099154949188232
0.382354617118835449 0.43489682674407959 0.976842999458312988
0.598789691925048828 0.612942874431610107 0.04093208909034729
0.492532700300216675 0.357558250427246094 0.186929404735565186
0.367835164070129395 0.417868763208389282 0.323039442300796509
0.519942402839660645 0.343946546316146851 0.0146642690524458885
0.563449621200561523 0.413372039794921875 0.810963988304138184
0.642190217971801758 0.552466750144958496 0.167446509003639221
0.438098520040512085 0.406757563352584839 0.547210395336151123
0.462993323802947998 0.638605713844299316 0.0554867424070835114
0.668231666088104248 0.53193819522857666 0.498314380645751953
0.678407788276672363 0.413715124130249023 0.923546373844146729
0.54088127613067627 0.556909143924713135 0.272905558347702026
0.437883108854293823 0.305632412433624268 0.0869595855474472046
0.383988857269287109 0.539025843143463135 0.29791298508644104
0.497838228940963745 0.373584657907485962 0.191786080598831177
0.385534524917602539 0.415571808815002441 0.0489813536405563354
0.59283745288848877 0.535918533802032471 0.686271488666534424
0.587510287761688232 0.530748844146728516 0.307480067014694214
0.402053356170654297 0.535012245178222656 0.32866331934928894
0.645579874515533447 0.576661050319671631 0.509940981864929199
0.341499745845794678 0.616266310214996338 0.0183674152940511703
0.597360908985137939 0.36854088306427002 0.521226942539215088
0.58076709508895874 0.686129450798034668 0.0668948888778686523
0.542947888374328613 0.373589962720870972 0.54944312572479248
0.45569455623626709 0.393881261348724365 0.151121065020561218
0.371358335018157959 0.419179022312164307 0.565261662006378174
0.696704208850860596 0.481069505214691162 0.525017678737640381
0.68518143892288208 0.515301942825317383 0.642292439937591553
0.696388900279998779 0.455557405948638916 0.487826883792877197
0.542752206325531006 0.301544487476348877 0.0905693173408508301
0.360486328601837158 0.435108214616775513 0.33249664306640625
0.606772661209106445 0.575694859027862549 0.62807011604309082
0.538871705532073975 0.45499187707901001 0.205233290791511536
0.561950862407684326 0.493842273950576782 0.0555657185614109039
0.586358070373535156 0.378939241170883179 0.782770872116088867
0.499559283256530762 0.620701432228088379 0.600979447364807129
0.464432984590530396 0.398422271013259888 0.861121952533721924
0.421015292406082153 0.384943187236785889 0.301611334085464478
0.688143134117126465 0.472403973340988159 0.925026237964630127
0.344283998012542725 0.504475712776184082 0.150065749883651733
0.581390559673309326 0.530050218105316162 0.272634685039520264
0.375773042440414429 0.442485123872756958 0.179474249482154846
0.404035061597824097 0.382529765367507935 0.807387709617614746
0.678282737731933594 0.461275786161422729 0.681039154529571533
0.375549018383026123 0.525968194007873535 0.485467642545700073
0.313633590936660767 0.579362690448760986 0.0692447572946548462
0.620849370956420898 0.379092931747436523 0.80501323938369751
0.424454152584075928 0.549874007701873779 0.30775800347328186
0.484871238470077515 0.571212112903594971 0.717976927757263184
0.441464334726333618 0.588989555835723877 0.0580273866653442383
0.447173506021499634 0.585614383220672607 0.362159281969070435
0.499353915452957153 0.585773885250091553 0.733015894889831543
0.480374395847320557 0.628156960010528564 0.52295982837677002
0.371660560369491577 0.416659295558929443 0.287893801927566528
0.542216956615447998 0.441553831100463867 0.189180552959442139
0.60770726203918457 0.619805693626403809 0.0230881832540035248
0.539758801460266113 0.353365987539291382 0.202683985233306885
0.561711251735687256 0.627484440803527832 0.150942355394363403
0.521066725254058838 0.700437545776367188 0.0901876017451286316
0.438724279403686523 0.424900174140930176 0.873142659664154053
0.626936614513397217 0.465789228677749634 0.965770721435546875
0.384390354156494141 0.508727669715881348 0.338288426399230957
0.619558334350585938 0.556143701076507568 0.149688556790351868
0.599952638149261475 0.405950546264648438 0.053266722708940506
0.579330027103424072 0.409826338291168213 0.0548911057412624359
0.702482163906097412 0.490240991115570068 0.066597960889339447
0.443165332078933716 0.369277000427246094 0.0487674586474895477
0.46646764874458313 0.36376875638961792 0.346760928630828857
0.550100803375244141 0.585157215595245361 0.796271085739135742
0.346533298492431641 0.398751586675643921 0.141814365983009338
0.391658425331115723 0.537984669208526611 0.555429756641387939
0.360435724258422852 0.62350773811340332 0.109700679779052734
0.42185521125793457 0.543299615383148193 0.0572913512587547302
0.466813117265701294 0.482659906148910522 0.803673148155212402
0.48709443211555481 0.566798746585845947 0.333968132734298706
0.689726293087005615 0.411300629377365112 0.814407169818878174
0.61225813627243042 0.497979342937469482 0.316923618316650391
0.560770809650421143 0.472404211759567261 0.156865537166595459
0.474310845136642456 0.473967581987380981 0.149152681231498718
0.425169765949249268 0.463064700365066528 0.661699473857879639
0.397894471883773804 0.43931281566619873 0.182327628135681152
0.4234047532081604 0.39693102240562439 0.325568944215774536
0.605036616325378418 0.418946653604507446 0.992086946964263916
0.566210269927978516 0.373033583164215088 0.698386609554290771
0.563620686531066895 0.375478386878967285 0.685299456119537354
0.552440643310546875 0.375505208969116211 0.684691905975341797
0.56412583589553833 0.377959638833999634 0.669792294502258301
0.565555691719055176 0.379892587661743164 0.625245153903961182
0.562145590782165527 0.380379617214202881 0.638585507869720459
0.565776944160461426 0.380110293626785278 0.654821693897247314
0.568935513496398926 0.381583034992218018 0.641866087913513184
0.38284948468208313 0.400667339563369751 0.580657482147216797
0.577080011367797852 0.689151167869567871 0.0951417461037635803
0.655995726585388184 0.553834199905395508 0.464925527572631836
0.340356051921844482 0.598012149333953857 0.113953240215778351
0.498046666383743286 0.575360953807830811 0.762162089347839355
0.378729701042175293 0.541181087493896484 0.531346321105957031
0.672246932983398438 0.474086731672286987 0.739787280559539795
0.459901243448257446 0.578515946865081787 0.614287197589874268
0.383789896965026855 0.333902060985565186 0.0632767900824546814
0.500244200229644775 0.424710363149642944 0.0554588921368122101
0.400506585836410522 0.381857693195343018 0.948671340942382812
0.420787215232849121 0.435350716114044189 0.57558208703994751
0.396510064601898193 0.657665908336639404 0.0315017066895961761
0.324116766452789307 0.557474613189697266 0.116551108658313751
0.633715569972991943 0.388536721467971802 0.220083966851234436
0.680042624473571777 0.509904623031616211 0.453198701143264771
0.408361703157424927 0.535329878330230713 0.566909551620483398
0.486773908138275146 0.414087802171707153 0.202740982174873352
0.446728497743606567 0.469910800457000732 0.978698492050170898
0.598955035209655762 0.519168734550476074 0.288334250450134277
0.683159410953521729 0.49829399585723877 0.119345232844352722
0.603438854217529297 0.382505476474761963 0.55906987190246582
0.460499167442321777 0.472005009651184082 0.989264488220214844
0.480781614780426025 0.565054833889007568 0.240201175212860107
0.478491008281707764 0.383206874132156372 0.537236273288726807
0.693021535873413086 0.49379122257232666 0.723724186420440674
0.486844748258590698 0.525683045387268066 0.820796370506286621
0.666431069374084473 0.527795255184173584 0.456951707601547241
0.656772911548614502 0.602204501628875732 0.134207457304000854
0.398198485374450684 0.422787070274353027 0.432328999042510986
0.564701855182647705 0.548698544502258301 0.87524878978729248
0.408847212791442871 0.536459565162658691 0.47103118896484375
0.538871228694915771 0.659331321716308594 0.151582807302474976
0.682517707347869873 0.404846638441085815 0.685846209526062012
0.459041625261306763 0.418827146291732788 0.0559322573244571686
0.49885261058807373 0.472567737102508545 0.148218348622322083
0.393209904432296753 0.455440223217010498 0.827800631523132324
0.523649454116821289 0.441882729530334473 0.994485676288604736
0.387632012367248535 0.406023979187011719 0.487761020660400391
0.603429436683654785 0.604486584663391113 0.478954404592514038
0.623993098735809326 0.572181105613708496 0.148532509803771973
0.344539403915405273 0.508360445499420166 0.280623704195022583
0.654207050800323486 0.391759157180786133 0.135792091488838196
0.479593068361282349 0.573891401290893555 0.729671955108642578
0.521095097064971924 0.37250855565071106 0.747500419616699219
0.400040715932846069 0.433325976133346558 0.589735984802246094
0.534712553024291992 0.379662245512008667 0.639190435409545898
0.364790916442871094 0.349485963582992554 0.0662040784955024719
0.573319554328918457 0.573778152465820312 0.648379325866699219
0.692841708660125732 0.498735576868057251 0.663295924663543701
0.66619032621383667 0.380985885858535767 0.812880754470825195
0.422615110874176025 0.499689579010009766 0.739762008190155029
0.517473101615905762 0.541590690612792969 0.861903369426727295
0.582781553268432617 0.500199437141418457 0.262592703104019165
0.520324945449829102 0.55192333459854126 0.302575796842575073
0.38046950101852417 0.506512105464935303 0.265635430812835693
0.697391688823699951 0.452305108308792114 0.944935500621795654
0.583978533744812012 0.513845145702362061 0.259808212518692017
0.515788912773132324 0.567511558532714844 0.310225605964660645
0.438020825386047363 0.436427801847457886 0.15084819495677948
0.645584583282470703 0.380448877811431885 0.847986280918121338
0.378253787755966187 0.379974097013473511 0.196867331862449646
0.642685830593109131 0.581190109252929688 0.568466305732727051
0.360659360885620117 0.515949666500091553 0.453897148370742798
0.496246784925460815 0.634006321430206299 0.559034168720245361
0.428696244955062866 0.536707639694213867 0.280679374933242798
0.612234354019165039 0.35107719898223877 0.112891241908073425
0.605487704277038574 0.633180201053619385 0.027040163055062294
0.4673328697681427 0.418305933475494385 0.993345022201538086
0.663790404796600342 0.453592479228973389 0.147784978151321411
0.670502066612243652 0.424438714981079102 0.62666010856628418
0.550343215465545654 0.318755835294723511 0.0434356220066547394
0.521392703056335449 0.556068539619445801 0.315945237874984741
0.404648184776306152 0.344719648361206055 0.146854206919670105
0.538960874080657959 0.569174468517303467 0.279865384101867676
0.537475645542144775 0.363928616046905518 0.530777454376220703
0.535089790821075439 0.584014594554901123 0.746943533420562744
0.685746490955352783 0.422117799520492554 0.835417449474334717
0.604419887065887451 0.328281044960021973 0.0650187209248542786
0.667333483695983887 0.387823641300201416 0.94490969181060791
0.495117992162704468 0.35303458571434021 0.0352368801832199097
0.524309039115905762 0.390815973281860352 0.787842929363250732
0.585303544998168945 0.62386399507522583 0.0353035852313041687
0.387809962034225464 0.411283165216445923 0.684666633605957031
0.527328908443450928 0.577054381370544434 0.62973320484161377
0.323906689882278442 0.49734833836555481 0.219984620809555054
0.396558672189712524 0.342174828052520752 0.0446314439177513123
0.459115535020828247 0.497733563184738159 0.79541933536529541
0.655754268169403076 0.448010653257369995 0.926258742809295654
0.339623749256134033 0.452738463878631592 0.0379579812288284302
0.396709531545639038 0.388351678848266602 0.222082614898681641
0.41434207558631897 0.460022240877151489 0.185041233897209167
0.49820360541343689 0.560579538345336914 0.228949472308158875
0.62048184871673584 0.435971528291702271 0.250622034072875977
0.457691371440887451 0.442113786935806274 0.159947454929351807
0.690230786800384521 0.507072567939758301 0.753367424011230469
0.512556731700897217 0.585908114910125732 0.404458552598953247
0.337088584899902344 0.502508640289306641 0.301970809698104858
0.600976288318634033 0.546245932579040527 0.656998634338378906
0.684829115867614746 0.432641893625259399 0.654953300952911377
0.632726609706878662 0.375315099954605103 0.215800493955612183
0.499286353588104248 0.578224599361419678 0.777218759059906006
0.396087825298309326 0.387159645557403564 0.931632637977600098
0.52456355094909668 0.420488744974136353 0.936948478221893311
0.498252421617507935 0.442920774221420288 0.14782850444316864
0.441657394170761108 0.503579378128051758 0.738645613193511963
0.631061017513275146 0.413059800863265991 0.0341827869415283203
0.319900780916213989 0.424649059772491455 0.105667956173419952
0.3876839280128479 0.387803643941879272 0.250500082969665527
0.665067195892333984 0.549208164215087891 0.15038318932056427
0.574526786804199219 0.540425658226013184 0.28236854076385498
0.490760207176208496 0.567188858985900879 0.227741256356239319
0.504149317741394043 0.575181066989898682 0.820018947124481201
0.584864616394042969 0.405686378479003906 0.980151772499084473
0.564356446266174316 0.629159629344940186 0.48564988374710083
0.580320239067077637 0.556725561618804932 0.380650967359542847
0.385010033845901489 0.428012251853942871 0.364834964275360107
0.360070675611495972 0.475225627422332764 0.181990429759025574
0.401090115308761597 0.373740345239639282 0.148712560534477234
0.643628716468811035 0.370941132307052612 0.786027908325195312
0.474320471286773682 0.316718310117721558 0.116963222622871399
0.686334669589996338 0.469426810741424561 0.121790416538715363
0.68621528148651123 0.465582668781280518 0.869421541690826416
0.383620589971542358 0.524157285690307617 0.536843001842498779
0.643668949604034424 0.357299298048019409 0.0661648362874984741
0.683834254741668701 0.427998840808868408 0.642230629920959473
0.584499657154083252 0.478455454111099243 0.197635605931282043
0.38066592812538147 0.442869395017623901 0.69196707010269165
0.325154155492782593 0.533250689506530762 0.144005909562110901
0.679622352123260498 0.601266682147979736 0.0894043967127799988
0.50793302059173584 0.3460349440574646 0.212617814540863037
0.404141157865524292 0.613495469093322754 0.0404377132654190063
0.441010713577270508 0.337737321853637695 0.00254353368654847145
0.542043447494506836 0.377782672643661499 0.670007407665252686
0.448289066553115845 0.590210855007171631 0.463758528232574463
0.612579107284545898 0.373244702816009521 0.210293486714363098
0.375300943851470947 0.472212851047515869 0.149267598986625671
0.435357034206390381 0.481338411569595337 0.608862042427062988
0.540702760219573975 0.512726962566375732 0.224162131547927856
0.578550338745117188 0.661686539649963379 0.144768327474594116
0.588795602321624756 0.374372422695159912 0.362738966941833496
0.549086213111877441 0.640263497829437256 0.547504067420959473
0.620819270610809326 0.417428314685821533 0.0452901087701320648
0.684042036533355713 0.514373779296875 0.620442211627960205
0.369206130504608154 0.631787657737731934 0.141469448804855347
0.381024628877639771 0.420805692672729492 0.427453607320785522
0.602458417415618896 0.648414790630340576 0.0335885807871818542
0.398458212614059448 0.403276413679122925 0.0497217848896980286
0.475138872861862183 0.350090473890304565 0.0149452490732073784
0.447918623685836792 0.521096706390380859 0.670364618301391602
0.659781932830810547 0.438749343156814575 0.263721704483032227
0.498914569616317749 0.403919875621795654 0.19130513072013855
0.512521266937255859 0.602581202983856201 0.616334676742553711
0.343227654695510864 0.624193072319030762 0.0607891865074634552
0.642501711845397949 0.517643630504608154 0.17812831699848175
0.370223492383956909 0.548214733600616455 0.0499366968870162964
0.505066275596618652 0.377762675285339355 0.697622179985046387
0.506209075450897217 0.380010545253753662 0.685927271842956543
0.503198802471160889 0.385285943746566772 0.668880939483642578
0.501952409744262695 0.38231813907623291 0.68273770809173584
0.50466996431350708 0.386600732803344727 0.654021739959716797
0.504006803035736084 0.386211395263671875 0.639314472675323486
0.491563081741333008 0.390175044536590576 0.638671517372131348
0.491051465272903442 0.392525166273117065 0.66804051399230957
0.490907400846481323 0.392860829830169678 0.654204010963439941
0.342276066541671753 0.372636646032333374 0.0947926640510559082
0.547035872936248779 0.364488661289215088 0.243195280432701111
0.618913352489471436 0.58824235200881958 0.456215053796768188
0.691674172878265381 0.442972183227539062 0.694961726665496826
0.440211296081542969 0.381024986505508423 0.0539692789316177368
0.605108797550201416 0.619209766387939453 0.510958552360534668
0.397856742143630981 0.442491203546524048 0.148517310619354248
0.562637448310852051 0.479865282773971558 0.880364954471588135
0.682540714740753174 0.387451261281967163 0.826608419418334961
0.356635987758636475 0.475591391324996948 0.451654404401779175
0.685171604156494141 0.536401093006134033 0.115126177668571472
0.460003256797790527 0.654470562934875488 0.0341966152191162109
0.374868839979171753 0.402926325798034668 0.0305906645953655243
0.630645811557769775 0.507426738739013672 0.777130126953125
0.519968628883361816 0.359689414501190186 0.23896479606628418
0.689089953899383545 0.481513112783432007 0.0453819930553436279
0.685842275619506836 0.57600778341293335 0.0602569654583930969
0.45280301570892334 0.509550631046295166 0.71492922306060791
0.461495012044906616 0.681078851222991943 0.141173779964447021
0.423086464405059814 0.427644699811935425 0.641311705112457275
0.402976721525192261 0.467265039682388306 0.546286463737487793
0.397770941257476807 0.387655049562454224 0.829600512981414795
0.443988263607025146 0.371776759624481201 0.289673358201980591
0.559514403343200684 0.577230095863342285 0.0576206892728805542
0.604510366916656494 0.587179005146026611 0.60738372802734375
0.354907423257827759 0.598518133163452148 0.161219179630279541
0.674147844314575195 0.461092978715896606 0.0290650054812431335
0.495649397373199463 0.661346614360809326 0.0379634462296962738
0.558384299278259277 0.569689393043518066 0.288587391376495361
0.408980667591094971 0.526387810707092285 0.307845026254653931
0.397537052631378174 0.343972384929656982 0.0231327321380376816
0.377185553312301636 0.527524113655090332 0.293004661798477173
0.625962674617767334 0.501683056354522705 0.184268161654472351
0.688990950584411621 0.516521632671356201 0.577390015125274658
0.563701987266540527 0.558733105659484863 0.71470564603805542
0.497308075428009033 0.631796777248382568 0.507614672183990479
0.644539177417755127 0.460034847259521484 0.956521093845367432
0.542792558670043945 0.562618136405944824 0.149211928248405457
0.506762444972991943 0.365077704191207886 0.514801204204559326
0.475656807422637939 0.364508867263793945 0.200105711817741394
0.578800439834594727 0.570037245750427246 0.150062441825866699
0.417512893676757812 0.642243027687072754 0.151738986372947693
0.382403731346130371 0.433312982320785522 0.930719733238220215
0.562520742416381836 0.583077967166900635 0.335271000862121582
0.462124824523925781 0.621295154094696045 0.546853482723236084
0.513204395771026611 0.539773464202880859 0.685620903968811035
0.496774882078170776 0.546561300754547119 0.147965982556343079
0.580601036548614502 0.627255022525787354 0.151021093130111694
0.66449207067489624 0.381278157234191895 0.0972999408841133118
0.665731906890869141 0.454222351312637329 0.413763880729675293
0.534905374050140381 0.357394218444824219 0.331949859857559204
0.550050437450408936 0.357216536998748779 0.331970125436782837
0.491898566484451294 0.358802676200866699 0.333868622779846191
0.506753146648406982 0.360812097787857056 0.332390308380126953
0.520656168460845947 0.361873745918273926 0.331929594278335571
0.445760756731033325 0.392429739236831665 0.72137916088104248
0.576550483703613281 0.331844806671142578 0.04328145831823349
0.694729864597320557 0.475137591361999512 0.768837332725524902
0.6606026291847229 0.489686250686645508 0.786311447620391846
0.673920392990112305 0.48483845591545105 0.793090462684631348
0.681386470794677734 0.465384215116500854 0.790746390819549561
0.672604858875274658 0.488165974617004395 0.776783347129821777
0.68559563159942627 0.45155024528503418 0.764572024345397949
0.68693774938583374 0.495839089155197144 0.775953054428100586
0.683329999446868896 0.466550678014755249 0.777006089687347412
0.685812830924987793 0.44881129264831543 0.778514742851257324
0.688295602798461914 0.493237942457199097 0.793095529079437256
0.687090635299682617 0.480692446231842041 0.793429672718048096
0.380048513412475586 0.480915814638137817 0.502172172069549561
0.636217355728149414 0.416026443243026733 0.234891369938850403
0.668105185031890869 0.428779959678649902 0.426311761140823364
0.501376152038574219 0.348736941814422607 0.434108585119247437
0.665149986743927002 0.463708251714706421 0.961449205875396729
0.464939713478088379 0.556783914566040039 0.738453269004821777
0.403111308813095093 0.429541528224945068 0.619830191135406494
0.381688863039016724 0.525462150573730469 0.45594671368598938
0.679199814796447754 0.501333713531494141 0.70154958963394165
0.391838908195495605 0.520834028720855713 0.257751613855361938
0.45330163836479187 0.384748905897140503 0.361494302749633789
0.621958613395690918 0.438344568014144897 0.0524506047368049622
0.451627969741821289 0.419425070285797119 0.623409867286682129
0.623563528060913086 0.598460376262664795 0.500405251979827881
0.542131781578063965 0.495726495981216431 0.221989214420318604
0.461155802011489868 0.357959240674972534 0.0293958503752946854
0.664796829223632812 0.619162440299987793 0.066524796187877655
0.602457642555236816 0.624876022338867188 0.52427363395690918
0.460880398750305176 0.609306573867797852 0.499334484338760376
0.659192860126495361 0.617871701717376709 0.0143858166411519051
0.535460591316223145 0.620838284492492676 0.150619879364967346
0.687148690223693848 0.42685273289680481 0.784723460674285889
0.389001250267028809 0.392764627933502197 0.59495466947555542
0.520143389701843262 0.473901033401489258 0.147911280393600464
0.420358657836914062 0.623992085456848145 0.0450992435216903687
0.475516796112060547 0.630531609058380127 0.549182355403900146
0.670199275016784668 0.403174906969070435 0.511831879615783691
0.685890495777130127 0.474471837282180786 0.471815913915634155
0.571830987930297852 0.591295242309570312 0.364424616098403931
0.624726951122283936 0.503255128860473633 0.0557922758162021637
0.402748376131057739 0.395380288362503052 0.706881940364837646
0.68512427806854248 0.433656960725784302 0.66717982292175293
0.443413645029067993 0.642308592796325684 0.0309663116931915283
0.624010562896728516 0.536542177200317383 0.381159782409667969
0.374645799398422241 0.528857946395874023 0.447474211454391479
0.406820595264434814 0.52952045202255249 0.347039401531219482
0.682212114334106445 0.415378719568252563 0.511492431163787842
0.64228290319442749 0.416983187198638916 0.269452750682830811
0.388658434152603149 0.444604933261871338 0.81390303373336792
0.438471406698226929 0.379087597131729126 0.753880977630615234
0.522046685218811035 0.431053370237350464 0.822839677333831787
0.562504172325134277 0.487457811832427979 0.147626757621765137
0.543009459972381592 0.49602094292640686 0.0557745583355426788
0.369081348180770874 0.423938274383544922 0.5276985764503479
0.563936829566955566 0.586473524570465088 0.355261296033859253
0.340940803289413452 0.462669044733047485 0.317348897457122803
0.377717375755310059 0.539231181144714355 0.505252838134765625
0.579799830913543701 0.680019974708557129 0.107233613729476929
0.395475238561630249 0.557038247585296631 0.465611517429351807
0.603783011436462402 0.533956587314605713 0.337174922227859497
0.522158503532409668 0.682796955108642578 0.133393868803977966
0.401331722736358643 0.523562431335449219 0.47962912917137146
0.388711392879486084 0.463796526193618774 0.0563701912760734558
0.637482047080993652 0.571937203407287598 0.0207393132150173187
0.364776819944381714 0.649435162544250488 0.0913309454917907715
0.68343585729598999 0.383883059024810791 0.783990204334259033
0.606448471546173096 0.391242116689682007 0.0351987816393375397
0.476184576749801636 0.65082162618637085 0.0354114100337028503
0.588021516799926758 0.370782166719436646 0.0351311936974525452
0.370437413454055786 0.430452257394790649 0.546038329601287842
0.667848885059356689 0.446541368961334229 0.972864687442779541
0.692473113536834717 0.478521794080734253 0.905379712581634521
0.542490899562835693 0.457813113927841187 0.0554692745208740234
0.394651532173156738 0.449931681156158447 0.763929009437561035
0.41155657172203064 0.392358601093292236 0.685917079448699951
0.503476798534393311 0.561647295951843262 0.658003628253936768
0.515438616275787354 0.363238424062728882 0.293303370475769043
0.403004288673400879 0.439305990934371948 0.977007508277893066
0.628366291522979736 0.541752040386199951 0.397521883249282837
0.700646400451660156 0.542927801609039307 0.0749494731426239014
0.597398757934570312 0.344680994749069214 0.0462688915431499481
0.549538314342498779 0.343542546033859253 0.026396680623292923
0.616245806217193604 0.61640477180480957 0.54655987024307251
0.679039597511291504 0.421575218439102173 0.474273890256881714
0.410026580095291138 0.466697484254837036 0.564223825931549072
0.326527416706085205 0.462442487478256226 0.183778852224349976
0.570189237594604492 0.468633472919464111 0.980133771896362305
0.424037516117095947 0.454478532075881958 0.639385342597961426
0.664886653423309326 0.495291650295257568 0.754924952983856201
0.623143792152404785 0.385058671236038208 0.828893423080444336
0.473958492279052734 0.441316902637481689 0.148909658193588257
0.679546654224395752 0.449483633041381836 0.465687453746795654
0.323663920164108276 0.413366734981536865 0.10247589647769928
0.580557048320770264 0.634204387664794922 0.532033801078796387
0.643301427364349365 0.49429786205291748 0.402091711759567261
0.660818755626678467 0.393623262643814087 0.674396812915802002
0.475630223751068115 0.598007440567016602 0.0581624098122119904
0.542235851287841797 0.369891881942749023 0.748591423034667969
0.426255732774734497 0.389150321483612061 0.955022513866424561
0.423369556665420532 0.315774112939834595 0.0951106473803520203
0.38944891095161438 0.413323074579238892 0.811718583106994629
0.662959814071655273 0.445486217737197876 0.649225711822509766
0.605590522289276123 0.413099169731140137 0.828818261623382568
0.510888755321502686 0.431963741779327393 0.18872186541557312
0.579949676990509033 0.584562122821807861 0.638924658298492432
0.557605504989624023 0.671655595302581787 0.0442757867276668549
0.581164777278900146 0.593584954738616943 0.150744661688804626
0.554822266101837158 0.364164650440216064 0.22627432644367218
0.404937267303466797 0.387294590473175049 0.476648330688476562
0.416942417621612549 0.39700588583946228 0.470764398574829102
0.378820568323135376 0.653511166572570801 0.0231061484664678574
0.474516421556472778 0.300761550664901733 0.0959272384643554688
0.505788505077362061 0.484456419944763184 0.839030146598815918
0.498923033475875854 0.321164429187774658 0.140219956636428833
0.420765697956085205 0.57071453332901001 0.470583140850067139
0.416047066450119019 0.686330795288085938 0.079949699342250824
0.665861010551452637 0.451008766889572144 0.989079654216766357
0.500481486320495605 0.480366051197052002 0.207989931106567383
0.688369512557983398 0.481678664684295654 0.883212506771087646
0.523951590061187744 0.46495133638381958 0.84760361909866333
0.634938240051269531 0.435638517141342163 0.981753885746002197
0.519449770450592041 0.586088597774505615 0.149673402309417725
0.399096876382827759 0.403371602296829224 0.967471837997436523
0.43825724720954895 0.37349274754524231 0.16614125669002533
0.45892643928527832 0.376119315624237061 0.815386772155761719
0.478486686944961548 0.550602376461029053 0.7240142822265625
0.561550438404083252 0.369978219270706177 0.238135173916816711
0.45761340856552124 0.580955028533935547 0.283717036247253418
0.437016427516937256 0.383441388607025146 0.476934611797332764
0.669279992580413818 0.537230968475341797 0.516096234321594238
0.476406335830688477 0.310194194316864014 0.00146921072155237198
0.422985196113586426 0.537467241287231445 0.197353199124336243
0.520256221294403076 0.40207400918006897 0.186329960823059082
0.504027485847473145 0.526735901832580566 0.84460902214050293
0.41819387674331665 0.425000786781311035 0.55930781364440918
0.543042182922363281 0.572213590145111084 0.64730602502822876
0.459444671869277954 0.320696771144866943 0.114230751991271973
0.449132800102233887 0.56868821382522583 0.626784205436706543
0.390844345092773438 0.375591516494750977 0.248273476958274841
0.599222064018249512 0.493955820798873901 0.269683092832565308
0.547610461711883545 0.449784368276596069 0.930984616279602051
0.381397068500518799 0.522235691547393799 0.272815674543380737
0.559658706188201904 0.619351029396057129 0.45170515775680542
0.604596197605133057 0.651505053043365479 0.131780862808227539
0.629973709583282471 0.526612341403961182 0.380977511405944824
0.399856299161911011 0.386253416538238525 0.292503178119659424
0.534371078014373779 0.359566658735275269 0.288789927959442139
0.521987617015838623 0.360485553741455078 0.272903025150299072
0.533919990062713623 0.360230386257171631 0.274462342262268066
0.549304962158203125 0.362199783325195312 0.303745269775390625
0.535238504409790039 0.361943095922470093 0.258626073598861694
0.548302948474884033 0.363892257213592529 0.289098739624023438
0.562686145305633545 0.36458587646484375 0.319480329751968384
0.547709763050079346 0.365281492471694946 0.275247037410736084
0.566502153873443604 0.369540780782699585 0.30389714241027832
0.55468297004699707 0.366523891687393188 0.288465887308120728
0.60076141357421875 0.467705100774765015 0.258214205503463745
0.573589861392974854 0.651107370853424072 0.0358982011675834656
0.520768702030181885 0.316501528024673462 0.0166936684399843216
0.674510180950164795 0.434123754501342773 0.468973159790039062
0.396276921033859253 0.395156770944595337 0.486206799745559692
0.600342869758605957 0.492654353380203247 0.855530381202697754
0.358449310064315796 0.372765988111495972 0.0457217134535312653
0.436098486185073853 0.375554323196411133 0.813361704349517822
0.435678541660308838 0.374042332172393799 0.786394953727722168
0.641566932201385498 0.418283164501190186 0.587846577167510986
0.381815165281295776 0.441488534212112427 0.317528635263442993
0.324918240308761597 0.47776871919631958 0.184666872024536133
0.427730083465576172 0.525584399700164795 0.243345975875854492
0.4291800856590271 0.570210635662078857 0.559251129627227783
0.642653882503509521 0.385653227567672729 0.71542280912399292
0.684222877025604248 0.402123868465423584 0.73184126615524292
0.675266623497009277 0.385980039834976196 0.715098798274993896
