ply
format ascii 1.0
element vertex 763
property float x
property float y
property float z
end_header
0.448793530464172363 0.738305747509002686 0.929081261157989502
0.63696897029876709 0.221284940838813782 0.252226829528808594
0.33601611852645874 0.764184415340423584 0.71116328239440918
0.60608828067779541 0.190953642129898071 0.816366910934448242
0.59817051887512207 0.800842940807342529 0.192601367831230164
0.523715972900390625 0.839085280895233154 0.787774026393890381
0.65450054407119751 0.72189486026763916 0.261487275362014771
0.545914888381958008 0.363743752241134644 0.366639584302902222
0.493265271186828613 0.726409673690795898 0.210517004132270813
0.518632411956787109 0.117665603756904602 0.209747195243835449
0.520958006381988525 0.320116668939590454 0.564815223217010498
0.43849983811378479 0.172147005796432495 0.730854332447052002
0.579876363277435303 0.930557608604431152 0.3265971839427948
0.482213318347930908 0.157484650611877441 0.169553011655807495
0.630611836910247803 0.695864677429199219 0.154260650277137756
0.626372218132019043 0.686104714870452881 0.207534536719322205
0.620336234569549561 0.719997584819793701 0.211916729807853699
0.632337093353271484 0.697333574295043945 0.189913377165794373
0.632143199443817139 0.694377243518829346 0.184329360723495483
0.661535978317260742 0.673670172691345215 0.193134456872940063
0.653280436992645264 0.675434470176696777 0.165883675217628479
0.633590459823608398 0.69099050760269165 0.178659215569496155
0.620284974575042725 0.703030765056610107 0.139560908079147339
0.627860546112060547 0.685260355472564697 0.126364603638648987
0.63202136754989624 0.680769860744476318 0.116105362772941589
0.39651024341583252 0.20326569676399231 0.625145435333251953
0.376901566982269287 0.19725586473941803 0.626711845397949219
0.412821024656295776 0.205740824341773987 0.616439700126647949
0.398411750793457031 0.178196951746940613 0.608837664127349854
0.40267220139503479 0.173456400632858276 0.6051788330078125
0.404098391532897949 0.155091255903244019 0.598482847213745117
0.407390356063842773 0.158655151724815369 0.60198599100112915
0.401550620794296265 0.17171083390712738 0.598489046096801758
0.431682318449020386 0.178623765707015991 0.619094669818878174
0.422645688056945801 0.196527794003486633 0.616613686084747314
0.417342096567153931 0.204320922493934631 0.617050766944885254
0.408458918333053589 0.22620372474193573 0.866504549980163574
0.363262534141540527 0.502612531185150146 0.830913305282592773
0.52812647819519043 0.707256734371185303 0.774090826511383057
0.592908799648284912 0.28419804573059082 0.863743722438812256
0.337222695350646973 0.682994484901428223 0.76041710376739502
0.499353677034378052 0.712844491004943848 0.744490087032318115
0.669052064418792725 0.253619641065597534 0.30044671893119812
0.593729555606842041 0.738171935081481934 0.855608999729156494
0.583638548851013184 0.722789645195007324 0.75080949068069458
0.534736096858978271 0.399870783090591431 0.934424757957458496
0.549051940441131592 0.362774908542633057 0.909852147102355957
0.548448085784912109 0.366684794425964355 0.915570080280303955
0.565107583999633789 0.374655812978744507 0.898898601531982422
0.577273309230804443 0.382360070943832397 0.878680646419525146
0.549287796020507812 0.357413232326507568 0.908832669258117676
0.559719204902648926 0.377017766237258911 0.912574350833892822
0.5589255690574646 0.378470927476882935 0.924263954162597656
0.532850265502929688 0.385825425386428833 0.897955656051635742
0.531599342823028564 0.387777745723724365 0.906428098678588867
0.52438962459564209 0.425490915775299072 0.977083146572113037
0.543088674545288086 0.81593012809753418 0.788448452949523926
0.649439632892608643 0.251399427652359009 0.290850281715393066
0.329361051321029663 0.274685323238372803 0.223747104406356812
0.519900381565093994 0.971286654472351074 0.631468415260314941
0.572592198848724365 0.909888744354248047 0.312301874160766602
0.44917568564414978 0.700985133647918701 0.884260296821594238
0.639528393745422363 0.886317849159240723 0.49650418758392334
0.660684466361999512 0.488580971956253052 0.823398768901824951
0.518240869045257568 0.920452892780303955 0.716651201248168945
0.460535615682601929 0.682076096534729004 0.530968427658081055
0.5211142897605896 0.223846361041069031 0.0901997834444046021
0.615872085094451904 0.656907558441162109 0.104772001504898071
0.561103343963623047 0.336460858583450317 0.0473369844257831573
0.522058248519897461 0.0739458575844764709 0.336909770965576172
0.352428048849105835 0.619285225868225098 0.778945803642272949
0.369971245527267456 0.807843625545501709 0.52199023962020874
0.414862185716629028 0.40628013014793396 0.667033135890960693
0.531728804111480713 0.876617014408111572 0.471310079097747803
0.674173295497894287 0.834374129772186279 0.597257554531097412
0.610122799873352051 0.206174418330192566 0.855765819549560547
0.576346874237060547 0.691578149795532227 0.48365667462348938
0.462588757276535034 0.759796559810638428 0.499332606792449951
0.604086816310882568 0.416148871183395386 0.693349003791809082
0.589651286602020264 0.349842935800552368 0.635227739810943604
0.664526879787445068 0.556717395782470703 0.0994155704975128174
0.380150049924850464 0.389890789985656738 0.205352529883384705
0.584356904029846191 0.719600200653076172 0.457236617803573608
0.658950448036193848 0.264613509178161621 0.257366091012954712
0.505821704864501953 0.54134058952331543 0.994679152965545654
0.403347700834274292 0.180154725909233093 0.833403587341308594
0.413814067840576172 0.408699214458465576 0.88501584529876709
0.404878288507461548 0.412977129220962524 0.886878728866577148
0.443452984094619751 0.399990260601043701 0.85782313346862793
0.45886114239692688 0.401155382394790649 0.857429981231689453
0.467596352100372314 0.404020071029663086 0.86185455322265625
0.466431200504302979 0.403315961360931396 0.871946394443511963
0.466887235641479492 0.403252154588699341 0.866606354713439941
0.414531081914901733 0.377806007862091064 0.884638428688049316
0.416566401720046997 0.377362251281738281 0.85596466064453125
0.43735840916633606 0.369482815265655518 0.882841765880584717
0.438414335250854492 0.367758601903915405 0.873710691928863525
0.442630529403686523 0.715096056461334229 0.105458103120326996
0.588112294673919678 0.308109551668167114 0.418633043766021729
0.501527726650238037 0.70781552791595459 0.226673945784568787
0.462447226047515869 0.746848046779632568 0.153793275356292725
0.497955948114395142 0.745338976383209229 0.162383779883384705
0.480514258146286011 0.732122540473937988 0.18864758312702179
0.470618158578872681 0.726588129997253418 0.192638292908668518
0.498154550790786743 0.734982609748840332 0.181554794311523438
0.471091896295547485 0.748369038105010986 0.140556737780570984
0.469352602958679199 0.744820237159729004 0.137592151761054993
0.46322941780090332 0.732795953750610352 0.126718387007713318
0.460373997688293457 0.727498650550842285 0.123669236898422241
0.472286999225616455 0.721512436866760254 0.116268351674079895
0.470754057168960571 0.717413723468780518 0.11223582923412323
0.46002843976020813 0.150282621383666992 0.291975617408752441
0.408761471509933472 0.17246536910533905 0.36374974250793457
0.45647883415222168 0.182189017534255981 0.132193192839622498
0.382197469472885132 0.762060105800628662 0.464656054973602295
0.640108406543731689 0.62282949686050415 0.850442171096801758
0.368854135274887085 0.272235333919525146 0.29731634259223938
0.383225291967391968 0.390297889709472656 0.708336114883422852
0.489599794149398804 0.43400225043296814 0.187103837728500366
0.658156096935272217 0.189379140734672546 0.734710693359375
0.59076303243637085 0.737913012504577637 0.431765764951705933
0.613488137722015381 0.723433554172515869 0.426609516143798828
0.605939328670501709 0.735223770141601562 0.439330697059631348
0.601224362850189209 0.727256834506988525 0.384064465761184692
0.586343884468078613 0.737527132034301758 0.437107324600219727
0.582137584686279297 0.738807618618011475 0.441351622343063354
0.578517794609069824 0.739707887172698975 0.445288360118865967
0.574810802936553955 0.741750419139862061 0.448862612247467041
0.596351027488708496 0.744226217269897461 0.450871020555496216
0.59144824743270874 0.745278835296630859 0.455990433692932129
0.587432205677032471 0.746994674205780029 0.460101455450057983
0.551693201065063477 0.398942947387695312 0.335555195808410645
0.592771649360656738 0.696230828762054443 0.46044275164604187
0.408325791358947754 0.394062191247940063 0.173667386174201965
0.464006364345550537 0.292842060327529907 0.443493396043777466
0.388512015342712402 0.774952054023742676 0.752360820770263672
0.478924751281738281 0.427706331014633179 0.243453413248062134
0.497401922941207886 0.813538014888763428 0.869997382164001465
0.501075625419616699 0.833891212940216064 0.863935351371765137
0.655303776264190674 0.234404772520065308 0.344493776559829712
0.566482722759246826 0.260260850191116333 0.630915999412536621
0.433234602212905884 0.690172731876373291 0.471988379955291748
0.397022664546966553 0.709702372550964355 0.749426305294036865
0.378218591213226318 0.743034064769744873 0.727197766304016113
0.387373745441436768 0.69375920295715332 0.721407413482666016
0.416993856430053711 0.650938868522644043 0.728610634803771973
0.428551465272903442 0.657659530639648438 0.726238787174224854
0.421139448881149292 0.656122982501983643 0.732353389263153076
0.415000468492507935 0.675548732280731201 0.755329668521881104
0.418023675680160522 0.671044111251831055 0.754676520824432373
0.37551453709602356 0.7455710768699646 0.74508059024810791
0.374244213104248047 0.749777853488922119 0.74276435375213623
0.372825145721435547 0.754121005535125732 0.740105152130126953
0.572089731693267822 0.682790458202362061 0.696276307106018066
0.461029231548309326 0.311200350522994995 0.518367230892181396
0.438438862562179565 0.310041069984436035 0.562102377414703369
0.444184780120849609 0.306436270475387573 0.560536205768585205
0.465397566556930542 0.308092713356018066 0.540070593357086182
0.464830726385116577 0.301544040441513062 0.545393645763397217
0.463579356670379639 0.297291815280914307 0.550243496894836426
0.478234827518463135 0.285172194242477417 0.558150410652160645
0.477963060140609741 0.289738267660140991 0.553220212459564209
0.46900138258934021 0.282822340726852417 0.556588888168334961
0.443460047245025635 0.28533443808555603 0.561655879020690918
0.453471750020980835 0.287831306457519531 0.554092645645141602
0.367445260286331177 0.0838406160473823547 0.407957106828689575
0.625357389450073242 0.582661569118499756 0.0550957731902599335
0.5755118727684021 0.437377899885177612 0.170956507325172424
0.4522361159324646 0.730950593948364258 0.497185945510864258
0.459386736154556274 0.930595219135284424 0.476770669221878052
0.414979547262191772 0.712763965129852295 0.090600229799747467
0.371905654668807983 0.276908606290817261 0.849195182323455811
0.602085411548614502 0.699805080890655518 0.295127630233764648
0.582256019115447998 0.721887350082397461 0.266174763441085815
0.580466508865356445 0.722246766090393066 0.26110684871673584
0.612672269344329834 0.722309708595275879 0.269732862710952759
0.584718704223632812 0.722670018672943115 0.260339677333831787
0.602209687232971191 0.713539063930511475 0.340766042470932007
0.586780786514282227 0.722600996494293213 0.25608360767364502
0.589046239852905273 0.722989380359649658 0.259710609912872314
0.596031844615936279 0.722924530506134033 0.255437582731246948
0.592395305633544922 0.723000288009643555 0.257413595914840698
0.600476205348968506 0.722995102405548096 0.255148708820343018
0.57765042781829834 0.797057211399078369 0.164447799324989319
0.429293572902679443 0.984057903289794922 0.485931992530822754
0.379792481660842896 0.553567409515380859 0.0402443036437034607
0.610466420650482178 0.498812556266784668 0.872852087020874023
0.556443095207214355 0.380815207958221436 0.0697717443108558655
0.595972895622253418 0.429871797561645508 0.122650325298309326
0.554563164710998535 0.431482166051864624 0.111512571573257446
0.556322157382965088 0.431017160415649414 0.107748597860336304
0.554891765117645264 0.427646130323410034 0.105922549962997437
0.555718421936035156 0.425750494003295898 0.102542169392108917
0.555662870407104492 0.422574788331985474 0.0994654595851898193
0.555620431900024414 0.418435961008071899 0.0957568138837814331
0.556101024150848389 0.40570947527885437 0.0856131315231323242
0.559901952743530273 0.393575608730316162 0.0720570683479309082
0.556129753589630127 0.375831246376037598 0.0678921118378639221
0.503245532512664795 0.104810759425163269 0.6879996657371521
0.663755059242248535 0.870338678359985352 0.545152604579925537
0.36463552713394165 0.0728918910026550293 0.460065901279449463
0.416475147008895874 0.979352056980133057 0.458682477474212646
0.644392490386962891 0.741237938404083252 0.695842981338500977
0.391898393630981445 0.450364172458648682 0.795386373996734619
0.487829923629760742 0.718079149723052979 0.779724240303039551
0.446637958288192749 0.695226371288299561 0.757318675518035889
0.450476646423339844 0.697555482387542725 0.757767260074615479
0.452397704124450684 0.715171337127685547 0.863063991069793701
0.461973726749420166 0.721226811408996582 0.823097586631774902
0.481457978487014771 0.718174397945404053 0.778230965137481689
0.473898380994796753 0.721245050430297852 0.781419813632965088
0.484852194786071777 0.721167147159576416 0.785566747188568115
0.481875091791152954 0.724149048328399658 0.791628241539001465
0.470494180917739868 0.740311145782470703 0.820331752300262451
0.458548963069915771 0.738053441047668457 0.848047196865081787
0.3801746666431427 0.909547030925750732 0.323983311653137207
0.65924537181854248 0.337617576122283936 0.206770375370979309
0.644952178001403809 0.364454686641693115 0.234041333198547363
0.643651485443115234 0.355208456516265869 0.163073614239692688
0.65596318244934082 0.367554306983947754 0.147241488099098206
0.604347765445709229 0.71445012092590332 0.753713309764862061
0.655487000942230225 0.403513520956039429 0.226032540202140808
0.651106297969818115 0.395815253257751465 0.241349175572395325
0.651046872138977051 0.412024497985839844 0.232630282640457153
0.650984108448028564 0.396669387817382812 0.221138656139373779
0.649128079414367676 0.395165354013442993 0.15450577437877655
0.651413440704345703 0.398730605840682983 0.151218652725219727
0.652472794055938721 0.402237027883529663 0.148544684052467346
0.655119955539703369 0.405097931623458862 0.14515310525894165
0.64947199821472168 0.39412987232208252 0.13315175473690033
0.655969083309173584 0.425874501466751099 0.127740323543548584
0.651910245418548584 0.39770430326461792 0.130739539861679077
0.362535953521728516 0.799311280250549316 0.800991594791412354
0.514000415802001953 0.144939035177230835 0.145063027739524841
0.500626444816589355 0.274242252111434937 0.39963996410369873
0.463227301836013794 0.735113859176635742 0.0835584700107574463
0.490187346935272217 0.759947478771209717 0.0982447192072868347
0.479104518890380859 0.768079280853271484 0.106072448194026947
0.476349323987960815 0.759940087795257568 0.0980556681752204895
0.481905937194824219 0.734609663486480713 0.0863102152943611145
0.477818489074707031 0.72669374942779541 0.0846525058150291443
0.4674854576587677 0.742834389209747314 0.0855786502361297607
0.464229106903076172 0.72525554895401001 0.0881275385618209839
0.478166103363037109 0.722406625747680664 0.0767285972833633423
0.477571189403533936 0.718109965324401855 0.0678481683135032654
0.456180185079574585 0.713607132434844971 0.0698701515793800354
0.520799160003662109 0.969415843486785889 0.664680778980255127
0.66574174165725708 0.197635114192962646 0.513130426406860352
0.520425677299499512 0.491262167692184448 0.728152871131896973
0.363547414541244507 0.660055637359619141 0.236893042922019958
0.336472183465957642 0.693486511707305908 0.235738366842269897
0.368344634771347046 0.64791792631149292 0.238672822713851929
0.363451331853866577 0.665604293346405029 0.236704379320144653
0.362272500991821289 0.671067297458648682 0.236151143908500671
0.361123383045196533 0.676293075084686279 0.235515713691711426
0.366683930158615112 0.654045641422271729 0.237795650959014893
0.373263567686080933 0.641243696212768555 0.24078117311000824
0.363834261894226074 0.665874123573303223 0.217867746949195862
0.360130399465560913 0.671704769134521484 0.217318713665008545
0.353631556034088135 0.677342414855957031 0.21778540313243866
0.42128637433052063 0.478235840797424316 0.274172097444534302
0.610324382781982422 0.463690012693405151 0.845666885375976562
0.475860267877578735 0.780938923358917236 0.878514111042022705
0.567521512508392334 0.696107149124145508 0.477357268333435059
0.394155830144882202 0.646882772445678711 0.6703757643699646
0.632672607898712158 0.67625582218170166 0.66746145486831665
0.555039286613464355 0.701765358448028564 0.493552863597869873
0.645578444004058838 0.775796651840209961 0.647789299488067627
0.628161728382110596 0.70500791072845459 0.770983219146728516
0.505412697792053223 0.129044443368911743 0.313389182090759277
0.570113718509674072 0.970173180103302002 0.404402613639831543
0.468255817890167236 0.200899228453636169 0.330414682626724243
0.565620183944702148 0.786081850528717041 0.793489575386047363
0.371530115604400635 0.492384135723114014 0.792145431041717529
0.497257709503173828 0.622159183025360107 0.615610480308532715
0.650221467018127441 0.561887979507446289 0.852906107902526855
0.401244789361953735 0.152410179376602173 0.792440235614776611
0.392705440521240234 0.855902373790740967 0.222686111927032471
0.643350839614868164 0.872827827930450439 0.547532856464385986
0.652368724346160889 0.405017822980880737 0.729455351829528809
0.538692653179168701 0.740545868873596191 0.484521239995956421
0.522248804569244385 0.340989410877227783 0.0569382049143314362
0.565186500549316406 0.94054877758026123 0.31439971923828125
0.596403598785400391 0.917894184589385986 0.400630384683609009
0.332097887992858887 0.64460676908493042 0.2178630530834198
0.366030126810073853 0.435531437397003174 0.206292569637298584
0.482502371072769165 0.450171679258346558 0.739393889904022217
0.458817213773727417 0.221495643258094788 0.098496660590171814
0.586767613887786865 0.376390159130096436 0.65556710958480835
0.570135116577148438 0.030415073037147522 0.517487585544586182
0.516077697277069092 0.144032776355743408 0.170559152960777283
0.578213810920715332 0.739562392234802246 0.760209560394287109
0.335978209972381592 0.790706932544708252 0.712156772613525391
0.620160400867462158 0.295364618301391602 0.868605315685272217
0.50113445520401001 0.635994613170623779 0.683274567127227783
0.530201852321624756 0.0877034589648246765 0.372438877820968628
0.373358398675918579 0.622668623924255371 0.707509815692901611
0.590175032615661621 0.851920664310455322 0.525927841663360596
0.590606212615966797 0.0407289005815982819 0.430885940790176392
0.382756680250167847 0.237570449709892273 0.29587709903717041
0.368489742279052734 0.111993402242660522 0.541654825210571289
0.404767632484436035 0.889633655548095703 0.471946477890014648
0.542267084121704102 0.805505812168121338 0.480744987726211548
0.567313432693481445 0.0275602210313081741 0.473073452711105347
0.584472298622131348 0.0637562721967697144 0.409634321928024292
0.633472919464111328 0.234348833560943604 0.523255050182342529
0.623040199279785156 0.239887192845344543 0.557649672031402588
0.62605130672454834 0.238277420401573181 0.553578019142150879
0.639330565929412842 0.216851949691772461 0.52653050422668457
0.628723561763763428 0.251072078943252563 0.491212218999862671
0.608911097049713135 0.216781139373779297 0.565820872783660889
0.608285903930664062 0.216506198048591614 0.565797150135040283
0.643979847431182861 0.246609047055244446 0.49405631422996521
0.627381682395935059 0.257081091403961182 0.486242681741714478
0.645216107368469238 0.256735414266586304 0.487709969282150269
0.626706957817077637 0.262076973915100098 0.481636136770248413
0.478742361068725586 0.793781101703643799 0.116870060563087463
0.490685582160949707 0.781939208507537842 0.128074437379837036
0.489047437906265259 0.779544055461883545 0.125143975019454956
0.49096071720123291 0.784032940864562988 0.125139474868774414
0.507371664047241211 0.779082179069519043 0.119023062288761139
0.489340007305145264 0.781558692455291748 0.122278898954391479
0.487232983112335205 0.776819288730621338 0.121853262186050415
0.491224229335784912 0.786063790321350098 0.122300073504447937
0.487543165683746338 0.778747975826263428 0.11906520277261734
0.507697761058807373 0.781182944774627686 0.116328448057174683
0.486110389232635498 0.771898508071899414 0.071803852915763855
0.355299681425094604 0.0757760703563690186 0.466812670230865479
0.63706892728805542 0.307669132947921753 0.202832579612731934
0.571406781673431396 0.747712433338165283 0.451677918434143066
0.575308620929718018 0.885530531406402588 0.264356464147567749
0.364466279745101929 0.853451788425445557 0.285466492176055908
0.350992649793624878 0.785510420799255371 0.521558463573455811
0.464035749435424805 0.308581560850143433 0.0528457164764404297
0.480347573757171631 0.676562368869781494 0.61704552173614502
0.422586351633071899 0.975427865982055664 0.429413676261901855
0.454889059066772461 0.997191309928894043 0.505316019058227539
0.580169200897216797 0.929403126239776611 0.329525262117385864
0.54530024528503418 0.0487465262413024902 0.536042392253875732
0.50648796558380127 0.672747671604156494 0.53646320104598999
0.5377158522605896 0.422445178031921387 0.172224894165992737
0.618100404739379883 0.442545145750045776 0.774117767810821533
0.649604439735412598 0.525364279747009277 0.898796260356903076
0.454474300146102905 0.376253575086593628 0.0311183296144008636
0.345794409513473511 0.283645182847976685 0.255274444818496704
0.630812525749206543 0.911886930465698242 0.308636933565139771
0.384573459625244141 0.659921944141387939 0.225432947278022766
0.534631788730621338 0.803980708122253418 0.509032666683197021
0.487423896789550781 0.0464965924620628357 0.64794999361038208
0.372358560562133789 0.220332786440849304 0.319147884845733643
0.373913884162902832 0.8683013916015625 0.254344701766967773
0.426986247301101685 0.973351180553436279 0.458408355712890625
0.62525784969329834 0.845847785472869873 0.537112116813659668
0.339989304542541504 0.479599177837371826 0.802808761596679688
0.510230839252471924 0.930732607841491699 0.503872215747833252
0.405801862478256226 0.389643490314483643 0.696275472640991211
0.455143481492996216 0.691007018089294434 0.0655606538057327271
0.641286730766296387 0.698442399501800537 0.773387134075164795
0.500700056552886963 0.471999526023864746 0.729566752910614014
0.407392323017120361 0.406335979700088501 0.709007382392883301
0.357037961483001709 0.756105661392211914 0.466915816068649292
0.504436850547790527 0.234158918261528015 0.627210378646850586
0.524961531162261963 0.371321618556976318 0.0901370346546173096
0.552348494529724121 0.39443284273147583 0.108200497925281525
0.518651247024536133 0.40394929051399231 0.0928760543465614319
0.484225958585739136 0.352400422096252441 0.0852408483624458313
0.482708275318145752 0.358028948307037354 0.0829342976212501526
0.482762724161148071 0.363920003175735474 0.0833891704678535461
0.483881831169128418 0.370681583881378174 0.0879148691892623901
0.483746141195297241 0.377160310745239258 0.0922845005989074707
0.484887838363647461 0.38334992527961731 0.098445400595664978
0.485400021076202393 0.388535141944885254 0.102751657366752625
0.526146173477172852 0.439178884029388428 0.130020931363105774
0.479399055242538452 0.654517590999603271 0.684762775897979736
0.509825468063354492 0.521794557571411133 0.688887059688568115
0.541127145290374756 0.539530098438262939 0.662870883941650391
0.665669262409210205 0.2588309645652771 0.279111117124557495
0.460149198770523071 0.227884337306022644 0.629574477672576904
0.341131627559661865 0.146098777651786804 0.511880636215209961
0.484524816274642944 0.426917552947998047 0.244724571704864502
0.430938303470611572 0.67683720588684082 0.445297420024871826
0.520563364028930664 0.084930911660194397 0.216842547059059143
0.615224778652191162 0.237717092037200928 0.856774270534515381
0.654018700122833252 0.567166626453399658 0.831248342990875244
0.478446900844573975 0.781055092811584473 0.485247105360031128
0.505860805511474609 0.349039465188980103 0.556587040424346924
0.497923076152801514 0.729233860969543457 0.524594783782958984
0.558794260025024414 0.67377394437789917 0.292938947677612305
0.555892825126647949 0.629065811634063721 0.284796565771102905
0.571725308895111084 0.660782158374786377 0.279496103525161743
0.548872292041778564 0.654167413711547852 0.274520576000213623
0.575259387493133545 0.700287282466888428 0.302944779396057129
0.523234665393829346 0.672824621200561523 0.280395209789276123
0.560170114040374756 0.708903312683105469 0.277190178632736206
0.541837036609649658 0.6976470947265625 0.276650905609130859
0.554439306259155273 0.708596587181091309 0.275085270404815674
0.546806514263153076 0.704421579837799072 0.275155901908874512
0.542864203453063965 0.701505303382873535 0.274990379810333252
0.425781607627868652 0.510228753089904785 0.974758684635162354
0.450580120086669922 0.922458469867706299 0.455281704664230347
0.4814433753490448 0.734281301498413086 0.0569618344306945801
0.452335238456726074 0.444689959287643433 0.231775924563407898
0.554090678691864014 0.323511362075805664 0.604573547840118408
0.558417439460754395 0.831152856349945068 0.1609610915184021
0.423976659774780273 0.439946830272674561 0.669213950634002686
0.581822752952575684 0.1904173344373703 0.643052935600280762
0.541302084922790527 0.128315359354019165 0.641827702522277832
0.541106641292572021 0.11119312047958374 0.65353691577911377
0.556993722915649414 0.132233783602714539 0.665142178535461426
0.553422152996063232 0.118614651262760162 0.666703641414642334
0.534677267074584961 0.141867965459823608 0.643516778945922852
0.542501270771026611 0.145139783620834351 0.649747014045715332
0.537626206874847412 0.148305207490921021 0.647279620170593262
0.532526135444641113 0.14927259087562561 0.644317209720611572
0.561873912811279297 0.199537202715873718 0.620863676071166992
0.556520283222198486 0.198578536510467529 0.623801708221435547
0.491050153970718384 0.236217081546783447 0.114027366042137146
0.564574480056762695 0.636086046695709229 0.686659753322601318
0.543904721736907959 0.218095719814300537 0.374557316303253174
0.42460399866104126 0.747159898281097412 0.80287480354309082
0.441962450742721558 0.725250422954559326 0.842942416667938232
0.44094201922416687 0.727822065353393555 0.837634086608886719
0.450766861438751221 0.737220346927642822 0.853785216808319092
0.449007093906402588 0.740408837795257568 0.848879873752593994
0.430034011602401733 0.766452133655548096 0.805915772914886475
0.447375327348709106 0.743424057960510254 0.843579649925231934
0.4460715651512146 0.745890498161315918 0.837622523307800293
0.399769753217697144 0.767782986164093018 0.770439267158508301
0.40488085150718689 0.786445438861846924 0.77602088451385498
0.402701705694198608 0.788864731788635254 0.771110594272613525
0.365937680006027222 0.791475236415863037 0.837196469306945801
0.644157707691192627 0.240530550479888916 0.248171582818031311
0.557818889617919922 0.0847586691379547119 0.606127321720123291
0.450383096933364868 0.710626304149627686 0.111771389842033386
0.593553364276885986 0.423924535512924194 0.750571250915527344
0.653062105178833008 0.79950869083404541 0.610910177230834961
0.563795149326324463 0.429737120866775513 0.0783462822437286377
0.564484894275665283 0.419275075197219849 0.0858277827501296997
0.565819859504699707 0.437584757804870605 0.100397005677223206
0.56605219841003418 0.447011440992355347 0.0883405581116676331
0.570719540119171143 0.44390946626663208 0.103318981826305389
0.54294276237487793 0.443542838096618652 0.108983397483825684
0.57131493091583252 0.447151273488998413 0.104712061583995819
0.541111230850219727 0.439116805791854858 0.104315735399723053
0.544417858123779297 0.441887170076370239 0.102471180260181427
0.544209063053131104 0.439368963241577148 0.0988773778080940247
0.570945560932159424 0.46664196252822876 0.0876811966300010681
0.342118322849273682 0.503928124904632568 0.795898020267486572
0.500349521636962891 0.492782354354858398 0.686818838119506836
0.590423345565795898 0.757343649864196777 0.857117295265197754
0.402756392955780029 0.788851022720336914 0.216827690601348877
0.622204005718231201 0.816570043563842773 0.17755424976348877
0.355615019798278809 0.696353793144226074 0.761832714080810547
0.448023229837417603 0.900934875011444092 0.482332557439804077
0.399126559495925903 0.794675529003143311 0.480923235416412354
0.339912682771682739 0.241332888603210449 0.631332218647003174
0.520773530006408691 0.963110446929931641 0.673872888088226318
0.59229964017868042 0.297925174236297607 0.913501381874084473
0.625366568565368652 0.346427172422409058 0.882626891136169434
0.617624759674072266 0.333050072193145752 0.867492437362670898
0.615935325622558594 0.326082855463027954 0.864904701709747314
0.613134264945983887 0.318081021308898926 0.862679839134216309
0.610839188098907471 0.308850526809692383 0.860081672668457031
0.616432845592498779 0.327819585800170898 0.883416891098022461
0.612363457679748535 0.304721832275390625 0.855729222297668457
0.612834632396697998 0.320350170135498047 0.882763147354125977
0.610828816890716553 0.312698066234588623 0.882441163063049316
0.610135257244110107 0.300529241561889648 0.887318909168243408
0.416367799043655396 0.639707684516906738 0.057862110435962677
0.384252488613128662 0.825109958648681641 0.210432887077331543
0.363288402557373047 0.764112234115600586 0.23771946132183075
0.369737803936004639 0.785604894161224365 0.253350049257278442
0.365169107913970947 0.779069304466247559 0.251065760850906372
0.380532294511795044 0.792991220951080322 0.255306631326675415
0.363914042711257935 0.773277401924133301 0.248512059450149536
0.376115322113037109 0.811110615730285645 0.2326555997133255
0.368436872959136963 0.785076320171356201 0.234497874975204468
0.366823405027389526 0.778295695781707764 0.23264719545841217
0.386144340038299561 0.823668897151947021 0.198295280337333679
0.386624664068222046 0.813870370388031006 0.193469449877738953
0.55731511116027832 0.258693903684616089 0.634570181369781494
0.333469092845916748 0.324273675680160522 0.27600175142288208
0.36484825611114502 0.683734893798828125 0.757062196731567383
0.467633426189422607 0.519388675689697266 0.94817119836807251
0.632124125957489014 0.925607860088348389 0.394438505172729492
0.65020143985748291 0.801382780075073242 0.644671738147735596
0.567467689514160156 0.874815642833709717 0.195639669895172119
0.529014229774475098 0.0400272272527217865 0.548849761486053467
0.568683028221130371 0.440593957901000977 0.247505098581314087
0.549185693264007568 0.493621528148651123 0.217534244060516357
0.568170249462127686 0.496389627456665039 0.274913579225540161
0.5629844069480896 0.458694517612457275 0.207643613219261169
0.559812724590301514 0.461216568946838379 0.209326028823852539
0.52754819393157959 0.455160290002822876 0.204486295580863953
0.521678388118743896 0.453268140554428101 0.199917182326316833
0.528253793716430664 0.439298689365386963 0.205649435520172119
0.513274013996124268 0.451502054929733276 0.201328128576278687
0.557330429553985596 0.457207202911376953 0.204576373100280762
0.551562130451202393 0.455861836671829224 0.201659068465232849
0.365973383188247681 0.634483993053436279 0.230648025870323181
0.496210396289825439 0.841726303100585938 0.871240675449371338
0.622252702713012695 0.744683980941772461 0.690962612628936768
0.354323983192443848 0.59610140323638916 0.226468458771705627
0.596978604793548584 0.833399116992950439 0.829355597496032715
0.647445499897003174 0.697185873985290527 0.20909331738948822
0.604850649833679199 0.160543769598007202 0.748395323753356934
0.648747920989990234 0.476666182279586792 0.892513930797576904
0.37002640962600708 0.147760465741157532 0.374007731676101685
0.475978612899780273 0.420426696538925171 0.327059894800186157
0.456548780202865601 0.151188760995864868 0.143750131130218506
0.627300024032592773 0.203267663717269897 0.71935659646987915
0.360155493021011353 0.54336845874786377 0.218842744827270508
0.414583981037139893 0.153879284858703613 0.361480474472045898
0.400323301553726196 0.78777623176574707 0.16183936595916748
0.390838295221328735 0.752667665481567383 0.242963403463363647
0.384764611721038818 0.739331424236297607 0.222389966249465942
0.392174452543258667 0.74602210521697998 0.241535797715187073
0.384751379489898682 0.750653624534606934 0.224520564079284668
0.387221395969390869 0.755724906921386719 0.225223913788795471
0.389053434133529663 0.761161923408508301 0.226193368434906006
0.392453104257583618 0.766811013221740723 0.227517694234848022
0.402256220579147339 0.791309118270874023 0.198374658823013306
0.398801058530807495 0.791061758995056152 0.184587404131889343
0.400343149900436401 0.791561722755432129 0.190992504358291626
0.435331463813781738 0.119453065097332001 0.193345874547958374
0.417293757200241089 0.68096691370010376 0.376293599605560303
0.459178358316421509 0.629126191139221191 0.370803356170654297
0.447575986385345459 0.678280889987945557 0.36069190502166748
0.388403177261352539 0.664234638214111328 0.357046008110046387
0.456233292818069458 0.676674365997314453 0.355069637298583984
0.417643457651138306 0.683905243873596191 0.444631069898605347
0.44022706151008606 0.688443601131439209 0.351642787456512451
0.398858815431594849 0.693391382694244385 0.374669462442398071
0.39868241548538208 0.696940183639526367 0.37723657488822937
0.39739421010017395 0.699704110622406006 0.380575448274612427
0.396407514810562134 0.70225214958190918 0.384180217981338501
0.653232932090759277 0.899421870708465576 0.499177813529968262
0.666727304458618164 0.289792776107788086 0.182223603129386902
0.437944740056991577 0.115285754203796387 0.225362971425056458
0.478057533502578735 0.183257758617401123 0.66003793478012085
0.604216337203979492 0.458159834146499634 0.0361778996884822845
0.454310357570648193 0.986052930355072021 0.554930031299591064
0.604906439781188965 0.454280197620391846 0.212949991226196289
0.582888364791870117 0.474399745464324951 0.227027490735054016
0.596225976943969727 0.468908250331878662 0.12362276017665863
0.601988494396209717 0.463875859975814819 0.125395849347114563
0.610524117946624756 0.451391607522964478 0.12919887900352478
0.581046104431152344 0.450441151857376099 0.138096451759338379
0.582838892936706543 0.446568012237548828 0.141512244939804077
0.574517607688903809 0.450873404741287231 0.137811034917831421
0.578766226768493652 0.447779268026351929 0.140776798129081726
0.587070047855377197 0.444413036108016968 0.142714738845825195
0.607645571231842041 0.419347941875457764 0.202656194567680359
0.478005409240722656 0.341724216938018799 0.067364133894443512
0.466974228620529175 0.112290896475315094 0.720190227031707764
0.351120293140411377 0.74919360876083374 0.229243069887161255
0.383182406425476074 0.145953744649887085 0.730361640453338623
0.427538633346557617 0.279460996389389038 0.646429657936096191
0.544034183025360107 0.02292671799659729 0.431117475032806396
0.351302772760391235 0.682421743869781494 0.76116865873336792
0.38803333044052124 0.769222617149353027 0.843852341175079346
0.543251633644104004 0.322304010391235352 0.0408966131508350372
0.465568006038665771 0.942345142364501953 0.500784337520599365
0.380902141332626343 0.514232039451599121 0.253495782613754272
0.409582227468490601 0.500672280788421631 0.227709248661994934
0.365482896566390991 0.567633509635925293 0.267953157424926758
0.364795386791229248 0.57249140739440918 0.271031051874160767
0.358910590410232544 0.580356478691101074 0.281601071357727051
0.406065225601196289 0.502187907695770264 0.224669411778450012
0.401665091514587402 0.504877030849456787 0.223264798521995544
0.383571147918701172 0.507710874080657959 0.219350576400756836
0.381271272897720337 0.51256638765335083 0.220468312501907349
0.38013949990272522 0.517583012580871582 0.221659615635871887
0.380073517560958862 0.522746860980987549 0.223055258393287659
0.565707504749298096 0.715353250503540039 0.46813654899597168
0.345521599054336548 0.744400978088378906 0.72153782844543457
0.619950771331787109 0.570384800434112549 0.0489101596176624298
0.6714133620262146 0.270225793123245239 0.281765609979629517
0.580892026424407959 0.693148672580718994 0.694549024105072021
0.449339896440505981 0.67536461353302002 0.623673319816589355
0.437436908483505249 0.656823098659515381 0.608114421367645264
0.449083566665649414 0.674806594848632812 0.618461132049560547
0.4487629234790802 0.67556607723236084 0.628634929656982422
0.449267715215682983 0.676375687122344971 0.634102165699005127
0.448859363794326782 0.676775097846984863 0.639229536056518555
0.448519885540008545 0.677245676517486572 0.644390225410461426
0.449415981769561768 0.678387999534606934 0.650118172168731689
0.446594893932342529 0.678490400314331055 0.65507662296295166
0.443534731864929199 0.678159713745117188 0.659375786781311035
0.441330492496490479 0.677768111228942871 0.664960682392120361
0.640302479267120361 0.863101363182067871 0.559520721435546875
0.588719785213470459 0.431769609451293945 0.814735293388366699
0.45823255181312561 0.708631932735443115 0.0452006757259368896
0.454034924507141113 0.0871408134698867798 0.750699102878570557
0.646895766258239746 0.216261550784111023 0.408216238021850586
0.642826199531555176 0.383309721946716309 0.235067084431648254
0.64576268196105957 0.375291705131530762 0.230479717254638672
0.660921812057495117 0.404849916696548462 0.231892019510269165
0.660951673984527588 0.368896335363388062 0.235653162002563477
0.667847692966461182 0.370044469833374023 0.239026591181755066
0.646423578262329102 0.368285030126571655 0.17453274130821228
0.653733313083648682 0.371288537979125977 0.167089611291885376
0.653633534908294678 0.373563677072525024 0.157400235533714294
0.65977710485458374 0.386440962553024292 0.146679311990737915
0.646262884140014648 0.367838829755783081 0.150092512369155884
0.66478198766708374 0.369100570678710938 0.15063929557800293
0.612286269664764404 0.269816040992736816 0.576767504215240479
0.565733551979064941 0.339607894420623779 0.594713985919952393
0.460423022508621216 0.457918345928192139 0.0282352268695831299
0.340689390897750854 0.296919256448745728 0.646609663963317871
0.384974211454391479 0.737549424171447754 0.431259483098983765
0.442210644483566284 0.409708648920059204 0.102651827037334442
0.438914597034454346 0.406590104103088379 0.161817669868469238
0.460883915424346924 0.415428698062896729 0.159314021468162537
0.455461293458938599 0.437805920839309692 0.119839102029800415
0.465876907110214233 0.417105972766876221 0.158530205488204956
0.475920170545578003 0.43677753210067749 0.143025428056716919
0.475453972816467285 0.439880996942520142 0.135756537318229675
0.438821762800216675 0.438784927129745483 0.133117586374282837
0.449381321668624878 0.457252144813537598 0.105678603053092957
0.469447463750839233 0.367023557424545288 0.0689136087894439697
0.461326062679290771 0.456086874008178711 0.0850369781255722046
0.571157872676849365 0.0849110037088394165 0.666402518749237061
0.621977269649505615 0.365880131721496582 0.67061460018157959
0.435284644365310669 0.14169919490814209 0.178489282727241516
0.328669190406799316 0.235629051923751831 0.271250128746032715
0.564512789249420166 0.812311053276062012 0.188760146498680115
0.502313137054443359 0.67622673511505127 0.560307979583740234
0.463458269834518433 0.346727579832077026 0.448061674833297729
0.414924532175064087 0.200645402073860168 0.807949185371398926
0.433634430170059204 0.453706711530685425 0.664122879505157471
0.667008757591247559 0.247757658362388611 0.315168112516403198
0.432832598686218262 0.804690062999725342 0.477369546890258789
0.428283393383026123 0.666378974914550781 0.0793343931436538696
0.522307515144348145 0.98421400785446167 0.619318962097167969
0.426096439361572266 0.292399138212203979 0.520787537097930908
0.456131577491760254 0.135903045535087585 0.750906765460968018
0.475538730621337891 0.328205853700637817 0.40996900200843811
0.62990570068359375 0.413923531770706177 0.213022753596305847
0.626355111598968506 0.399814367294311523 0.228130966424942017
0.628304243087768555 0.405309438705444336 0.231005996465682983
0.62542569637298584 0.415564775466918945 0.233080357313156128
0.627572715282440186 0.402736872434616089 0.208005085587501526
0.628647506237030029 0.408497601747512817 0.210481166839599609
0.630967438220977783 0.422890067100524902 0.217363461852073669
0.625822365283966064 0.399458944797515869 0.163792401552200317
0.637739896774291992 0.426403582096099854 0.138386175036430359
0.626231074333190918 0.402947753667831421 0.160763010382652283
0.634976983070373535 0.410182088613510132 0.131957843899726868
0.418312400579452515 0.308976650238037109 0.458806276321411133
0.546011030673980713 0.435503780841827393 0.839198648929595947
0.336720883846282959 0.298244059085845947 0.306402385234832764
0.344978928565979004 0.15179106593132019 0.391307979822158813
0.603594839572906494 0.8010406494140625 0.504235923290252686
0.626562595367431641 0.794196963310241699 0.5567779541015625
0.628868460655212402 0.794059276580810547 0.551688432693481445
0.626499176025390625 0.797823905944824219 0.548141598701477051
0.625302314758300781 0.800276100635528564 0.544965088367462158
0.600850760936737061 0.787507057189941406 0.522092580795288086
0.632475912570953369 0.811672449111938477 0.548756957054138184
0.625099420547485352 0.808568179607391357 0.537658154964447021
0.626502931118011475 0.813433349132537842 0.529977858066558838
0.623795151710510254 0.813027381896972656 0.524927318096160889
0.571148455142974854 0.820623099803924561 0.517631828784942627
0.562042832374572754 0.364801257848739624 0.0491803437471389771
0.401478439569473267 0.374931037425994873 0.916450917720794678
0.4046059250831604 0.369675904512405396 0.854185044765472412
0.398265063762664795 0.381759494543075562 0.851738095283508301
0.41621890664100647 0.362491995096206665 0.887222170829772949
0.429407417774200439 0.349068313837051392 0.896201372146606445
0.428637713193893433 0.341723799705505371 0.898888826370239258
0.437919765710830688 0.365057170391082764 0.902964293956756592
0.427225589752197266 0.33315509557723999 0.90260767936706543
0.40710720419883728 0.327387809753417969 0.906048834323883057
0.4249534010887146 0.323428809642791748 0.907924115657806396
0.404142767190933228 0.314893364906311035 0.912760376930236816
0.411025822162628174 0.386286228895187378 0.669829070568084717
0.340728670358657837 0.819168329238891602 0.679870724678039551
0.605558037757873535 0.0492920316755771637 0.438482969999313354
0.483173072338104248 0.0652249753475189209 0.697734653949737549
0.422646224498748779 0.762990355491638184 0.484088599681854248
0.366502583026885986 0.54240727424621582 0.780659258365631104
0.368397742509841919 0.514171838760375977 0.784734368324279785
0.379583179950714111 0.512403428554534912 0.802934467792510986
0.382059574127197266 0.51204371452331543 0.802711606025695801
0.361899644136428833 0.51340019702911377 0.792459070682525635
0.364447742700576782 0.571096360683441162 0.76108098030090332
0.365471214056015015 0.57590329647064209 0.756674349308013916
0.366225123405456543 0.580343961715698242 0.751433134078979492
0.366440057754516602 0.583785653114318848 0.744883120059967041
0.368177264928817749 0.590970754623413086 0.734635353088378906
0.366917669773101807 0.587227463722229004 0.739099204540252686
0.659300029277801514 0.739351749420166016 0.636524736881256104
0.641318261623382568 0.309650450944900513 0.234678447246551514
0.642415165901184082 0.254971295595169067 0.226509183645248413
0.425069928169250488 0.320977836847305298 0.576809883117675781
0.462334930896759033 0.167286917567253113 0.697568356990814209
0.585794508457183838 0.263577431440353394 0.897681295871734619
0.591479122638702393 0.47454756498336792 0.229686364531517029
0.578906357288360596 0.478036284446716309 0.228983834385871887
0.582197904586791992 0.478014260530471802 0.229690596461296082
0.585479319095611572 0.478021204471588135 0.230529963970184326
0.641530990600585938 0.45704379677772522 0.125809088349342346
0.632242560386657715 0.461985409259796143 0.12553870677947998
0.607350528240203857 0.468246877193450928 0.125210180878639221
0.621277809143066406 0.467358976602554321 0.124626576900482178
0.608057737350463867 0.473128318786621094 0.121105603873729706
0.604655742645263672 0.478669226169586182 0.118801914155483246
0.601803421974182129 0.484511047601699829 0.115685105323791504
0.478499710559844971 0.727499544620513916 0.900266528129577637
0.555814623832702637 0.579299509525299072 0.307711362838745117
0.391562461853027344 0.874720096588134766 0.25685921311378479
0.488851666450500488 0.14322894811630249 0.195030972361564636
0.529230594635009766 0.00776164885610342026 0.511846482753753662
0.403484255075454712 0.676944077014923096 0.309538900852203369
0.40471261739730835 0.665551602840423584 0.336258798837661743
0.416940957307815552 0.672561526298522949 0.351333767175674438
0.421158283948898315 0.688865602016448975 0.349252998828887939
0.422251254320144653 0.687531888484954834 0.34604230523109436
0.418197661638259888 0.69052499532699585 0.35167771577835083
0.422229677438735962 0.686793088912963867 0.340634912252426147
0.423082023859024048 0.686545014381408691 0.33519744873046875
0.438173383474349976 0.690706253051757812 0.298824787139892578
0.441906154155731201 0.691899716854095459 0.297856032848358154
0.443318575620651245 0.692489027976989746 0.29348185658454895
0.512344539165496826 0.817092955112457275 0.132266730070114136
0.650535225868225098 0.897848904132843018 0.522746920585632324
0.663024067878723145 0.229712009429931641 0.225299403071403503
0.647440791130065918 0.771538436412811279 0.46916496753692627
0.51412886381149292 0.36944890022277832 0.362130135297775269
0.652107954025268555 0.423546850681304932 0.752868115901947021
0.387482315301895142 0.267216652631759644 0.345629870891571045
0.446873933076858521 0.416045278310775757 0.0200130268931388855
0.337039709091186523 0.83327019214630127 0.271352976560592651
0.513960063457489014 0.623239636421203613 0.630047440528869629
0.435609489679336548 0.260969310998916626 0.408486604690551758
0.392829626798629761 0.319702267646789551 0.628265082836151123
0.496715188026428223 0.427741348743438721 0.338077425956726074
0.669633984565734863 0.847321391105651855 0.583490431308746338
0.594172954559326172 0.135666146874427795 0.743975996971130371
0.445107787847518921 0.128381624817848206 0.292995989322662354
0.347962379455566406 0.499404966831207275 0.210196509957313538
0.400333940982818604 0.959206044673919678 0.397820174694061279
0.653910219669342041 0.266933739185333252 0.28242453932762146
0.500193595886230469 0.13103252649307251 0.184025824069976807
0.604789316654205322 0.414360791444778442 0.765787720680236816
0.383997023105621338 0.833555102348327637 0.209622591733932495
0.455951422452926636 0.735719859600067139 0.774326801300048828
0.371157854795455933 0.217878416180610657 0.299341827630996704
0.471225142478942871 0.96267545223236084 0.536784827709197998
0.556935250759124756 0.102374225854873657 0.327316582202911377
0.527213990688323975 0.074850037693977356 0.268282711505889893
0.376267522573471069 0.68964076042175293 0.421498566865921021
0.328911006450653076 0.555138766765594482 0.789886116981506348
0.654848694801330566 0.203763857483863831 0.566250264644622803
0.504481136798858643 0.886912047863006592 0.476631343364715576
0.349555671215057373 0.740688323974609375 0.732841193675994873
0.50515371561050415 0.796110928058624268 0.841547071933746338
0.471788883209228516 0.74643176794052124 0.838711798191070557
0.474968433380126953 0.751827716827392578 0.839216530323028564
0.481911361217498779 0.784588515758514404 0.842224538326263428
0.511107444763183594 0.804829895496368408 0.826982378959655762
0.494717985391616821 0.807923316955566406 0.821620345115661621
