ply
format ascii 1.0
element vertex 763
property float x
property float y
property float z
end_header
0.519900381565093994 0.971286654472351074 0.631468415260314941
0.601653337478637695 0.220836251974105835 0.343588262796401978
0.423976659774780273 0.439946830272674561 0.669213950634002686
0.339525073766708374 0.586821913719177246 0.775738835334777832
0.442059248685836792 0.428737848997116089 0.749723136425018311
0.350381821393966675 0.109203383326530457 0.468065828084945679
0.480347573757171631 0.676562368869781494 0.61704552173614502
0.353798627853393555 0.288405537605285645 0.347236335277557373
0.522148311138153076 0.483254194259643555 0.972252428531646729
0.534631788730621338 0.803980708122253418 0.509032666683197021
0.645098447799682617 0.417024731636047363 0.184235513210296631
0.455405235290527344 0.304437249898910522 0.524275481700897217
0.448023229837417603 0.900934875011444092 0.482332557439804077
0.328373044729232788 0.163933113217353821 0.55667269229888916
0.371157854795455933 0.217878416180610657 0.299341827630996704
0.394155830144882202 0.646882772445678711 0.6703757643699646
0.455143481492996216 0.691007018089294434 0.0655606538057327271
0.567467689514160156 0.874815642833709717 0.195639669895172119
0.38604050874710083 0.440391659736633301 0.768294274806976318
0.327983975410461426 0.806372344493865967 0.586105227470397949
0.490616917610168457 0.33527761697769165 0.087217673659324646
0.52415543794631958 0.258577972650527954 0.0647587105631828308
0.36372789740562439 0.169611379504203796 0.757547974586486816
0.476352959871292114 0.713747322559356689 0.935261964797973633
0.39944419264793396 0.660048484802246094 0.322960942983627319
0.373585492372512817 0.254334926605224609 0.836260497570037842
0.542552709579467773 0.28216138482093811 0.0622334517538547516
0.565689563751220703 0.97640383243560791 0.540786087512969971
0.347576230764389038 0.246876239776611328 0.628586411476135254
0.63002622127532959 0.13925403356552124 0.336380451917648315
0.346204012632369995 0.630028009414672852 0.753495633602142334
0.378157496452331543 0.301023334264755249 0.660336136817932129
0.435331463813781738 0.119453065097332001 0.193345874547958374
0.382852882146835327 0.145943686366081238 0.616351604461669922
0.606055021286010742 0.580678761005401611 0.312505930662155151
0.651926636695861816 0.844531655311584473 0.561781704425811768
0.529014229774475098 0.0400272272527217865 0.548849761486053467
0.499353677034378052 0.712844491004943848 0.744490087032318115
0.500700056552886963 0.471999526023864746 0.729566752910614014
0.368496537208557129 0.793728411197662354 0.508539438247680664
0.356050878763198853 0.686263442039489746 0.761801183223724365
0.478005409240722656 0.341724216938018799 0.067364133894443512
0.557387351989746094 0.990867495536804199 0.521281003952026367
0.453417986631393433 0.111722789704799652 0.722217381000518799
0.397108346223831177 0.78963017463684082 0.198884427547454834
0.345044225454330444 0.266678720712661743 0.653986096382141113
0.396823674440383911 0.94090956449508667 0.351756632328033447
0.459314078092575073 0.43880164623260498 0.911001265048980713
0.663024067878723145 0.229712009429931641 0.225299403071403503
0.349062204360961914 0.318573057651519775 0.290825247764587402
0.62096858024597168 0.398593783378601074 0.700909852981567383
0.439886808395385742 0.967045009136199951 0.489663422107696533
0.378438264131546021 0.590390503406524658 0.266800582408905029
0.643350839614868164 0.872827827930450439 0.547532856464385986
0.651406943798065186 0.767712175846099854 0.441996902227401733
0.478499710559844971 0.727499544620513916 0.900266528129577637
0.670608401298522949 0.832292675971984863 0.609854578971862793
0.641928434371948242 0.523658275604248047 0.824507236480712891
0.554002940654754639 0.298108190298080444 0.618760943412780762
0.392829626798629761 0.319702267646789551 0.628265082836151123
0.583910524845123291 0.217126086354255676 0.379152178764343262
0.553254067897796631 0.988521456718444824 0.580887198448181152
0.521888077259063721 0.088706478476524353 0.299726009368896484
0.632076740264892578 0.729964971542358398 0.873228251934051514
0.61990201473236084 0.805251836776733398 0.505742907524108887
0.565280437469482422 0.746098697185516357 0.178988531231880188
0.365937680006027222 0.791475236415863037 0.837196469306945801
0.514062047004699707 0.114083699882030487 0.180889204144477844
0.369971245527267456 0.807843625545501709 0.52199023962020874
0.340728670358657837 0.819168329238891602 0.679870724678039551
0.659676551818847656 0.881905734539031982 0.542210876941680908
0.63706892728805542 0.307669132947921753 0.202832579612731934
0.350992649793624878 0.785510420799255371 0.521558463573455811
0.336754590272903442 0.14553968608379364 0.480382353067398071
0.439492642879486084 0.116327494382858276 0.765680134296417236
0.417403101921081543 0.198743090033531189 0.810925424098968506
0.5507240891456604 0.220245674252510071 0.634994983673095703
0.608856856822967529 0.535798847675323486 0.286214113235473633
0.342987865209579468 0.300994664430618286 0.296356260776519775
0.654603123664855957 0.419084012508392334 0.178483963012695312
0.649616539478302002 0.193174362182617188 0.605660557746887207
0.529613494873046875 0.0568116791546344757 0.299903213977813721
0.478446900844573975 0.781055092811584473 0.485247105360031128
0.615072131156921387 0.868844509124755859 0.238921523094177246
0.641900956630706787 0.497502893209457397 0.893018603324890137
0.604347765445709229 0.71445012092590332 0.753713309764862061
0.364466279745101929 0.853451788425445557 0.285466492176055908
0.55509108304977417 0.0455126278102397919 0.415227979421615601
0.524300754070281982 0.477789759635925293 0.694607377052307129
0.603324472904205322 0.398824095726013184 0.696308493614196777
0.377781301736831665 0.800027251243591309 0.235986024141311646
0.380349725484848022 0.836863398551940918 0.245544984936714172
0.455563396215438843 0.704375386238098145 0.810030519962310791
0.601624786853790283 0.900111556053161621 0.309564054012298584
0.50113445520401001 0.635994613170623779 0.683274567127227783
0.555576622486114502 0.721500992774963379 0.476016581058502197
0.667267680168151855 0.262316286563873291 0.222067728638648987
0.495803385972976685 0.382395446300506592 0.10537981241941452
0.610570907592773438 0.381258606910705566 0.887646913528442383
0.414862185716629028 0.40628013014793396 0.667033135890960693
0.385110527276992798 0.602525830268859863 0.0427599214017391205
0.531444668769836426 0.00347131653688848019 0.55046612024307251
0.572592198848724365 0.909888744354248047 0.312301874160766602
0.530201852321624756 0.0877034589648246765 0.372438877820968628
0.551693201065063477 0.398942947387695312 0.335555195808410645
0.403339534997940063 0.938892900943756104 0.409734517335891724
0.418022602796554565 0.283748328685760498 0.652873456478118896
0.583597838878631592 0.440336912870407104 0.235201641917228699
0.466974228620529175 0.112290896475315094 0.720190227031707764
0.674173295497894287 0.834374129772186279 0.597257554531097412
0.429293572902679443 0.984057903289794922 0.485931992530822754
0.610122799873352051 0.206174418330192566 0.855765819549560547
0.474508166313171387 0.226850256323814392 0.111318796873092651
0.541127145290374756 0.539530098438262939 0.662870883941650391
0.338222712278366089 0.236813262104988098 0.26872900128364563
0.588719785213470459 0.431769609451293945 0.814735293388366699
0.409952551126480103 0.443273544311523438 0.829263389110565186
0.460590869188308716 0.0834673047065734863 0.712444543838500977
0.390911847352981567 0.766209542751312256 0.129250779747962952
0.379304051399230957 0.882348179817199707 0.256259799003601074
0.55731511116027832 0.258693903684616089 0.634570181369781494
0.343818455934524536 0.863872408866882324 0.675367116928100586
0.433549851179122925 0.172119185328483582 0.675627648830413818
0.625317811965942383 0.665325343608856201 0.675332486629486084
0.532083213329315186 0.434876710176467896 0.806673169136047363
0.3801746666431427 0.909547030925750732 0.323983311653137207
0.449715226888656616 0.149702906608581543 0.145531833171844482
0.597765803337097168 0.200938820838928223 0.339005351066589355
0.602823793888092041 0.192273929715156555 0.700925529003143311
0.622787952423095703 0.331069797277450562 0.636905312538146973
0.604216337203979492 0.458159834146499634 0.0361778996884822845
0.664008975028991699 0.6755257248878479 0.808545768260955811
0.432413101196289062 0.883528351783752441 0.475092321634292603
0.408961176872253418 0.181731909513473511 0.35315704345703125
0.468255817890167236 0.200899228453636169 0.330414682626724243
0.360124886035919189 0.896700203418731689 0.403081953525543213
0.566482722759246826 0.260260850191116333 0.630915999412536621
0.641318261623382568 0.309650450944900513 0.234678447246551514
0.414979547262191772 0.712763965129852295 0.090600229799747467
0.555814623832702637 0.579299509525299072 0.307711362838745117
0.529208481311798096 0.855780541896820068 0.501810252666473389
0.644722342491149902 0.265774279832839966 0.517249107360839844
0.430938303470611572 0.67683720588684082 0.445297420024871826
0.659106791019439697 0.656339108943939209 0.808013916015625
0.497923076152801514 0.729233860969543457 0.524594783782958984
0.520684897899627686 0.184519559144973755 0.103962942957878113
0.594172954559326172 0.135666146874427795 0.743975996971130371
0.428283393383026123 0.666378974914550781 0.0793343931436538696
0.406532168388366699 0.260264337062835693 0.843609511852264404
0.662036657333374023 0.223941341042518616 0.416310489177703857
0.585794508457183838 0.263577431440353394 0.897681295871734619
0.429712742567062378 0.108466379344463348 0.323221921920776367
0.442684799432754517 0.443932056427001953 0.713809669017791748
0.388873964548110962 0.380072265863418579 0.140554815530776978
0.37776714563369751 0.628712654113769531 0.290574729442596436
0.391898393630981445 0.450364172458648682 0.795386373996734619
0.477746665477752686 0.187656447291374207 0.123286955058574677
0.479524672031402588 0.676618695259094238 0.351726561784744263
0.368854135274887085 0.272235333919525146 0.29731634259223938
0.471113204956054688 0.801938533782958984 0.83557426929473877
0.519926667213439941 0.125492975115776062 0.177748695015907288
0.598717808723449707 0.144884184002876282 0.308050006628036499
0.381358623504638672 0.823278605937957764 0.175825342535972595
0.56640017032623291 0.404195487499237061 0.0935730785131454468
0.609255313873291016 0.693134844303131104 0.390118420124053955
0.570113718509674072 0.970173180103302002 0.404402613639831543
0.539709866046905518 0.0513134077191352844 0.347832828760147095
0.40606728196144104 0.321936607360839844 0.505259335041046143
0.547231137752532959 0.359757035970687866 0.584355175495147705
0.414583981037139893 0.153879284858703613 0.361480474472045898
0.58868861198425293 0.254562944173812866 0.419430643320083618
0.520563364028930664 0.084930911660194397 0.216842547059059143
0.650387704372406006 0.177179828286170959 0.669063448905944824
0.422586351633071899 0.975427865982055664 0.429413676261901855
0.652368724346160889 0.405017822980880737 0.729455351829528809
0.5211142897605896 0.223846361041069031 0.0901997834444046021
0.640820503234863281 0.247143596410751343 0.288515657186508179
0.384644865989685059 0.856630921363830566 0.250701427459716797
0.659747183322906494 0.24221782386302948 0.325685352087020874
0.474205702543258667 0.968245983123779297 0.570200562477111816
0.625653922557830811 0.3196372389793396 0.875752389430999756
0.590606212615966797 0.0407289005815982819 0.430885940790176392
0.364323675632476807 0.785149693489074707 0.713517308235168457
0.4522361159324646 0.730950593948364258 0.497185945510864258
0.420916229486465454 0.403989970684051514 0.947587907314300537
0.346812546253204346 0.710189461708068848 0.74170917272567749
0.513495564460754395 0.194133147597312927 0.101213812828063965
0.58553314208984375 0.340869724750518799 0.620197892189025879
0.655420839786529541 0.295156717300415039 0.239780664443969727
0.637605607509613037 0.231610566377639771 0.477561205625534058
0.339912682771682739 0.241332888603210449 0.631332218647003174
0.648747920989990234 0.476666182279586792 0.892513930797576904
0.606689751148223877 0.901434957981109619 0.266371935606002808
0.604924380779266357 0.695899307727813721 0.296173423528671265
0.464035749435424805 0.308581560850143433 0.0528457164764404297
0.335978209972381592 0.790706932544708252 0.712156772613525391
0.596978604793548584 0.833399116992950439 0.829355597496032715
0.392645359039306641 0.641132354736328125 0.247554466128349304
0.542115211486816406 0.397794246673583984 0.0609775856137275696
0.500626444816589355 0.274242252111434937 0.39963996410369873
0.46355322003364563 0.747544348239898682 0.145933195948600769
0.327019542455673218 0.247749209403991699 0.2495393306016922
0.486690014600753784 0.183251932263374329 0.127649515867233276
0.647445499897003174 0.697185873985290527 0.20909331738948822
0.518632411956787109 0.117665603756904602 0.209747195243835449
0.342345625162124634 0.161638736724853516 0.358707517385482788
0.510230839252471924 0.930732607841491699 0.503872215747833252
0.669854104518890381 0.810540974140167236 0.649534761905670166
0.530321419239044189 0.182092875242233276 0.298574149608612061
0.390533328056335449 0.69816887378692627 0.726794540882110596
0.471225142478942871 0.96267545223236084 0.536784827709197998
0.351302772760391235 0.682421743869781494 0.76116865873336792
0.653232932090759277 0.899421870708465576 0.499177813529968262
0.490456819534301758 0.507439076900482178 0.947928309440612793
0.600630283355712891 0.816471517086029053 0.827968418598175049
0.421205133199691772 0.27282378077507019 0.878992021083831787
0.595925390720367432 0.206101790070533752 0.827221274375915527
0.42128637433052063 0.478235840797424316 0.274172097444534302
0.37282717227935791 0.152295678853988647 0.559072971343994141
0.632712006568908691 0.91072613000869751 0.452302396297454834
0.475860267877578735 0.780938923358917236 0.878514111042022705
0.356378555297851562 0.768732845783233643 0.469922930002212524
0.482144832611083984 0.432554870843887329 0.86196136474609375
0.459436923265457153 0.154121249914169312 0.72117537260055542
0.528202414512634277 0.982200801372528076 0.571308553218841553
0.548445284366607666 0.310813814401626587 0.623726069927215576
0.357037961483001709 0.756105661392211914 0.466915816068649292
0.366030126810073853 0.435531437397003174 0.206292569637298584
0.387854814529418945 0.646877646446228027 0.312137782573699951
0.564047157764434814 0.772564232349395752 0.826101899147033691
0.47837454080581665 0.494420945644378662 0.970140814781188965
0.499996036291122437 0.942479848861694336 0.559890329837799072
0.375694721937179565 0.779882431030273438 0.471763044595718384
0.436629503965377808 0.302359580993652344 0.577318012714385986
0.41998898983001709 0.663318395614624023 0.62820887565612793
0.587508141994476318 0.498745322227478027 0.0441647619009017944
0.522058248519897461 0.0739458575844764709 0.336909770965576172
0.403034389019012451 0.386048793792724609 0.150071501731872559
0.6714133620262146 0.270225793123245239 0.281765609979629517
0.513960063457489014 0.623239636421203613 0.630047440528869629
0.349555671215057373 0.740688323974609375 0.732841193675994873
0.62525784969329834 0.845847785472869873 0.537112116813659668
0.566901445388793945 0.317670106887817383 0.626441776752471924
0.355667054653167725 0.694240152835845947 0.239954620599746704
0.658349692821502686 0.199215158820152283 0.537498056888580322
0.66783297061920166 0.631615817546844482 0.824673116207122803
0.524391472339630127 0.442342311143875122 0.895431756973266602
0.440665751695632935 0.553658187389373779 0.0422452390193939209
0.38012087345123291 0.884217977523803711 0.535805404186248779
0.336411923170089722 0.802480041980743408 0.533434808254241943
0.426986247301101685 0.973351180553436279 0.458408355712890625
0.355299681425094604 0.0757760703563690186 0.466812670230865479
0.411025822162628174 0.386286228895187378 0.669829070568084717
0.41762128472328186 0.404182195663452148 0.13588365912437439
0.639499485492706299 0.235731616616249084 0.293267637491226196
0.466162770986557007 0.684037923812866211 0.719758033752441406
0.649733006954193115 0.153231039643287659 0.284061521291732788
0.59817051887512207 0.800842940807342529 0.192601367831230164
0.37837633490562439 0.44274786114692688 0.748512506484985352
0.48754584789276123 0.988100111484527588 0.627684354782104492
0.495005428791046143 0.66178596019744873 0.571512281894683838
0.460367590188980103 0.378473758697509766 0.0513035133481025696
0.405801862478256226 0.389643490314483643 0.696275472640991211
0.578906357288360596 0.474978089332580566 0.155050799250602722
0.605558037757873535 0.0492920316755771637 0.438482969999313354
0.580169200897216797 0.929403126239776611 0.329525262117385864
0.376096159219741821 0.2164946049451828 0.808725178241729736
0.505210340023040771 0.487694025039672852 0.729247868061065674
0.468604475259780884 0.632435500621795654 0.0324091799557209015
0.443986654281616211 0.451160639524459839 0.947897255420684814
0.589651286602020264 0.349842935800552368 0.635227739810943604
0.648600876331329346 0.737510859966278076 0.726862192153930664
0.351116567850112915 0.550420165061950684 0.766460180282592773
0.553273260593414307 0.512402832508087158 0.690419971942901611
0.360354810953140259 0.774423837661743164 0.486216455698013306
0.383997023105621338 0.833555102348327637 0.209622591733932495
0.376267522573471069 0.68964076042175293 0.421498566865921021
0.460535615682601929 0.682076096534729004 0.530968427658081055
0.520341932773590088 0.610014557838439941 0.315160423517227173
0.402756392955780029 0.788851022720336914 0.216827690601348877
0.529860496520996094 0.316701352596282959 0.610956072807312012
0.477025836706161499 0.643020689487457275 0.360575079917907715
0.354323983192443848 0.59610140323638916 0.226468458771705627
0.646379292011260986 0.582701683044433594 0.892562448978424072
0.564512789249420166 0.812311053276062012 0.188760146498680115
0.453809350728988647 0.957681775093078613 0.516360878944396973
0.368294358253479004 0.381882041692733765 0.865334510803222656
0.545575976371765137 0.452380329370498657 0.247925430536270142
0.557818889617919922 0.0847586691379547119 0.606127321720123291
0.352428048849105835 0.619285225868225098 0.778945803642272949
0.351149588823318481 0.484414279460906982 0.795316219329833984
0.514582335948944092 0.263722032308578491 0.0736424028873443604
0.475735992193222046 0.235888689756393433 0.384821116924285889
0.5965920090675354 0.871847331523895264 0.509642302989959717
0.584472298622131348 0.0637562721967697144 0.409634321928024292
0.452335238456726074 0.444689959287643433 0.231775924563407898
0.381011605262756348 0.663965165615081787 0.27098420262336731
0.42895624041557312 0.979388177394866943 0.483276814222335815
0.618136823177337646 0.409816920757293701 0.181293502449989319
0.483173072338104248 0.0652249753475189209 0.697734653949737549
0.632672607898712158 0.67625582218170166 0.66746145486831665
0.669219493865966797 0.295685321092605591 0.262430638074874878
0.665883660316467285 0.566033720970153809 0.865723550319671631
0.511076748371124268 0.547870099544525146 0.653193056583404541
0.614128232002258301 0.800558388233184814 0.484114348888397217
0.614685654640197754 0.190423578023910522 0.284590452909469604
0.364784866571426392 0.482812821865081787 0.249345004558563232
0.445095688104629517 0.576693236827850342 0.0103890988975763321
0.579876363277435303 0.930557608604431152 0.3265971839427948
0.662893891334533691 0.195180535316467285 0.253762096166610718
0.632101297378540039 0.490292608737945557 0.26576697826385498
0.454376727342605591 0.657957553863525391 0.958355367183685303
0.479938477277755737 0.980434060096740723 0.656596779823303223
0.587440073490142822 0.512789130210876465 0.686716794967651367
0.543088674545288086 0.81593012809753418 0.788448452949523926
0.632985234260559082 0.76999056339263916 0.440531432628631592
0.420190900564193726 0.727915167808532715 0.114552631974220276
0.330787181854248047 0.800527215003967285 0.571077942848205566
0.526268243789672852 0.0688001289963722229 0.588982820510864258
0.56860804557800293 0.53286367654800415 0.291569322347640991
0.670137166976928711 0.774727344512939453 0.686076700687408447
0.623846590518951416 0.865834712982177734 0.548775076866149902
0.427206993103027344 0.763984203338623047 0.813520967960357666
0.502443194389343262 0.425060868263244629 0.143571183085441589
0.521767973899841309 0.127002820372581482 0.33438226580619812
0.593978703022003174 0.106585696339607239 0.699083328247070312
0.440050423145294189 0.674661815166473389 0.7001534104347229
0.628576099872589111 0.288529187440872192 0.451211750507354736
0.469437599182128906 0.892755508422851562 0.490299105644226074
0.328967690467834473 0.323568165302276611 0.215964600443840027
0.600763142108917236 0.521058142185211182 0.043632015585899353
0.426449775695800781 0.706106007099151611 0.24588051438331604
0.505821704864501953 0.54134058952331543 0.994679152965545654
0.520799160003662109 0.969415843486785889 0.664680778980255127
0.651067614555358887 0.671969413757324219 0.846386909484863281
0.350578337907791138 0.208161801099777222 0.62196958065032959
0.482213318347930908 0.157484650611877441 0.169553011655807495
0.506419718265533447 0.209192484617233276 0.120946764945983887
0.589366674423217773 0.279085993766784668 0.900799095630645752
0.351120293140411377 0.74919360876083374 0.229243069887161255
0.418107360601425171 0.553528368473052979 0.965480327606201172
0.649439632892608643 0.251399427652359009 0.290850281715393066
0.469954431056976318 0.354570925235748291 0.0673671290278434753
0.506935834884643555 0.426677584648132324 0.249067768454551697
0.605691075325012207 0.345024257898330688 0.658737659454345703
0.658156096935272217 0.189379140734672546 0.734710693359375
0.501479923725128174 0.8514975905418396 0.855329573154449463
0.4342670738697052 0.725334525108337402 0.751852273941040039
0.373913884162902832 0.8683013916015625 0.254344701766967773
0.509961962699890137 0.337069779634475708 0.380658984184265137
0.59028923511505127 0.754398643970489502 0.432038605213165283
0.377248167991638184 0.26975858211517334 0.63930511474609375
0.630771160125732422 0.24138130247592926 0.31584399938583374
0.552123188972473145 0.403663098812103271 0.930401086807250977
0.394127041101455688 0.293687880039215088 0.876779317855834961
0.509768843650817871 0.676766395568847656 0.268166422843933105
0.485196560621261597 0.778890013694763184 0.116763606667518616
0.512104153633117676 0.40358617901802063 0.0990294814109802246
0.393933415412902832 0.801116824150085449 0.172927945852279663
0.468216001987457275 0.269401401281356812 0.0686692520976066589
0.462636739015579224 0.678151965141296387 0.60860365629196167
0.592771649360656738 0.696230828762054443 0.46044275164604187
0.402348309755325317 0.278804093599319458 0.661331057548522949
0.357611387968063354 0.166585922241210938 0.596491873264312744
0.502590537071228027 0.833321869373321533 0.831881940364837646
0.437944740056991577 0.115285754203796387 0.225362971425056458
0.669896721839904785 0.283668786287307739 0.266429156064987183
0.629748880863189697 0.693201005458831787 0.105090171098709106
0.531808078289031982 0.595600426197052002 0.671639978885650635
0.355615019798278809 0.696353793144226074 0.761832714080810547
0.337630271911621094 0.669486641883850098 0.227709457278251648
0.382078766822814941 0.363470882177352905 0.659183323383331299
0.502313137054443359 0.67622673511505127 0.560307979583740234
0.574778437614440918 0.430913448333740234 0.764743387699127197
0.530025064945220947 0.501609504222869873 0.69213491678237915
0.400489211082458496 0.24533390998840332 0.884864628314971924
0.49556615948677063 0.886135280132293701 0.814864039421081543
0.630812525749206543 0.911886930465698242 0.308636933565139771
0.627300024032592773 0.203267663717269897 0.71935659646987915
0.442630529403686523 0.715096056461334229 0.105458103120326996
0.650535225868225098 0.897848904132843018 0.522746920585632324
0.444122076034545898 0.487176775932312012 0.944966912269592285
0.51162952184677124 0.871396720409393311 0.493438750505447388
0.473056674003601074 0.991439163684844971 0.571239948272705078
0.397975742816925049 0.188425123691558838 0.344397187232971191
0.5022696852684021 0.158557236194610596 0.172166913747787476
0.660238385200500488 0.788843095302581787 0.610484123229980469
0.496441245079040527 0.119038380682468414 0.285332322120666504
0.508234381675720215 0.309076845645904541 0.588914394378662109
0.56664586067199707 0.0634524747729301453 0.635783135890960693
0.493622243404388428 0.865429937839508057 0.832938730716705322
0.606296718120574951 0.259762555360794067 0.415524780750274658
0.604086816310882568 0.416148871183395386 0.693349003791809082
0.349949032068252563 0.876007139682769775 0.326677381992340088
0.595414578914642334 0.222691372036933899 0.816153883934020996
0.660217404365539551 0.309105336666107178 0.247148096561431885
0.383037805557250977 0.861701905727386475 0.221578657627105713
0.383182406425476074 0.145953744649887085 0.730361640453338623
0.37853705883026123 0.899519920349121094 0.26938512921333313
0.645785808563232422 0.289771437644958496 0.86484760046005249
0.654473781585693359 0.234398260712623596 0.225541234016418457
0.418385773897171021 0.133494004607200623 0.783208370208740234
0.450383096933364868 0.710626304149627686 0.111771389842033386
0.430230706930160522 0.959662139415740967 0.434247612953186035
0.3916759192943573 0.42043304443359375 0.121685512363910675
0.41761481761932373 0.7814750075340271 0.157320216298103333
0.431768447160720825 0.741068422794342041 0.141164302825927734
0.478622704744338989 0.737257122993469238 0.775956153869628906
0.628336012363433838 0.199964895844459534 0.567950725555419922
0.383974134922027588 0.293181687593460083 0.652015149593353271
0.604814291000366211 0.22881123423576355 0.811939597129821777
0.529841840267181396 0.203851133584976196 0.105168871581554413
0.37002640962600708 0.147760465741157532 0.374007731676101685
0.373718202114105225 0.365644663572311401 0.182089641690254211
0.58297199010848999 0.868939399719238281 0.77363818883895874
0.496715188026428223 0.427741348743438721 0.338077425956726074
0.58270794153213501 0.0771098285913467407 0.372353941202163696
0.341131627559661865 0.146098777651786804 0.511880636215209961
0.425069928169250488 0.320977836847305298 0.576809883117675781
0.36930769681930542 0.278766125440597534 0.862619876861572266
0.527213990688323975 0.074850037693977356 0.268282711505889893
0.497313439846038818 0.932156383991241455 0.718888223171234131
0.618756890296936035 0.721485495567321777 0.738648295402526855
0.675819933414459229 0.605845928192138672 0.825805783271789551
0.433461695909500122 0.507626712322235107 0.0268061533570289612
0.543904721736907959 0.218095719814300537 0.374557316303253174
0.481832683086395264 0.793608188629150391 0.898336410522460938
0.573151171207427979 0.419464409351348877 0.100180089473724365
0.561103343963623047 0.336460858583450317 0.0473369844257831573
0.654623270034790039 0.733117938041687012 0.75384986400604248
0.565186500549316406 0.94054877758026123 0.31439971923828125
0.350394010543823242 0.177122205495834351 0.327680110931396484
0.62867426872253418 0.700006246566772461 0.687494039535522461
0.537186026573181152 0.423214107751846313 0.752518355846405029
0.452487170696258545 0.245726391673088074 0.382161051034927368
0.380210399627685547 0.257828682661056519 0.65479046106338501
0.433898895978927612 0.123775042593479156 0.344700098037719727
0.639548182487487793 0.722700536251068115 0.254326045513153076
0.621660411357879639 0.417329549789428711 0.88877558708190918
0.452945351600646973 0.158941224217414856 0.146741822361946106
0.432832598686218262 0.804690062999725342 0.477369546890258789
0.388512015342712402 0.774952054023742676 0.752360820770263672
0.52222055196762085 0.407828569412231445 0.360891878604888916
0.558417439460754395 0.831152856349945068 0.1609610915184021
0.500193595886230469 0.13103252649307251 0.184025824069976807
0.610466420650482178 0.498812556266784668 0.872852087020874023
0.351933449506759644 0.276928901672363281 0.292427182197570801
0.340902477502822876 0.198406815528869629 0.312871754169464111
0.528299510478973389 0.66418910026550293 0.543698728084564209
0.379792481660842896 0.553567409515380859 0.0402443036437034607
0.46002843976020813 0.150282621383666992 0.291975617408752441
0.578877687454223633 0.423124581575393677 0.182574942708015442
0.373358398675918579 0.622668623924255371 0.707509815692901611
0.573886990547180176 0.0471555106341838837 0.603009462356567383
0.646895766258239746 0.216261550784111023 0.408216238021850586
0.40609443187713623 0.321392267942428589 0.551916897296905518
0.383109182119369507 0.496588081121444702 0.822571694850921631
0.654018700122833252 0.567166626453399658 0.831248342990875244
0.604212641716003418 0.731199800968170166 0.686137139797210693
0.557156920433044434 0.336489886045455933 0.0366681218147277832
0.492398232221603394 0.439155995845794678 0.291183590888977051
0.602110028266906738 0.825713038444519043 0.200167551636695862
0.540140032768249512 0.473720252513885498 0.299977213144302368
0.353933960199356079 0.815087437629699707 0.262888014316558838
0.344978928565979004 0.15179106593132019 0.391307979822158813
0.364396870136260986 0.297689497470855713 0.248293519020080566
0.425005644559860229 0.955739200115203857 0.46332252025604248
0.339989304542541504 0.479599177837371826 0.802808761596679688
0.503554403781890869 0.289899557828903198 0.0623442120850086212
0.391562461853027344 0.874720096588134766 0.25685921311378479
0.418312400579452515 0.308976650238037109 0.458806276321411133
0.392733752727508545 0.671837389469146729 0.061688445508480072
0.347962379455566406 0.499404966831207275 0.210196509957313538
0.527168571949005127 0.349984586238861084 0.573806941509246826
0.397590398788452148 0.246691897511482239 0.849805831909179688
0.466953516006469727 0.42135930061340332 0.0997934341430664062
0.664794027805328369 0.224497586488723755 0.234561428427696228
0.460149198770523071 0.227884337306022644 0.629574477672576904
0.473216652870178223 0.759767234325408936 0.860749542713165283
0.460448324680328369 0.63233029842376709 0.683154284954071045
0.431791305541992188 0.679289340972900391 0.748264133930206299
0.385559499263763428 0.876292526721954346 0.311129182577133179
0.497401922941207886 0.813538014888763428 0.869997382164001465
0.401087015867233276 0.702789604663848877 0.428960651159286499
0.390560179948806763 0.836045205593109131 0.525824129581451416
0.580482602119445801 0.853870868682861328 0.227312400937080383
0.448131591081619263 0.572831451892852783 0.0281101074069738388
0.395883411169052124 0.203634127974510193 0.80421900749206543
0.512344539165496826 0.817092955112457275 0.132266730070114136
0.368489742279052734 0.111993402242660522 0.541654825210571289
0.645126283168792725 0.787747561931610107 0.524578869342803955
0.387129247188568115 0.480076640844345093 0.798466324806213379
0.384297043085098267 0.77891308069229126 0.78769683837890625
0.553512215614318848 0.695679724216461182 0.514128744602203369
0.496718764305114746 0.498346328735351562 0.94962698221206665
0.530958652496337891 0.644595444202423096 0.276429861783981323
0.392197847366333008 0.825724601745605469 0.251974344253540039
0.346880793571472168 0.778110802173614502 0.505070745944976807
0.432461053133010864 0.320761173963546753 0.556764662265777588
0.520425677299499512 0.491262167692184448 0.728152871131896973
0.591239988803863525 0.186177670955657959 0.791933059692382812
0.518240869045257568 0.920452892780303955 0.716651201248168945
0.357884526252746582 0.0746176689863204956 0.497254371643066406
0.40666884183883667 0.414700418710708618 0.668803393840789795
0.402367591857910156 0.452095717191696167 0.0423227325081825256
0.384573459625244141 0.659921944141387939 0.225432947278022766
0.556935250759124756 0.102374225854873657 0.327316582202911377
0.451620101928710938 0.147758856415748596 0.737533390522003174
0.419592946767807007 0.679059684276580811 0.379927784204483032
0.396801114082336426 0.698422908782958984 0.910012125968933105
0.448793530464172363 0.738305747509002686 0.929081261157989502
0.376164853572845459 0.83978956937789917 0.203270271420478821
0.406428486108779907 0.472810596227645874 0.289803773164749146
0.367445260286331177 0.0838406160473823547 0.407957106828689575
0.571361780166625977 0.712756872177124023 0.820332705974578857
0.37926897406578064 0.11125529557466507 0.36010587215423584
0.422646224498748779 0.762990355491638184 0.484088599681854248
0.654848694801330566 0.203763857483863831 0.566250264644622803
0.459229081869125366 0.235181108117103577 0.0799968615174293518
0.554090678691864014 0.323511362075805664 0.604573547840118408
0.641286730766296387 0.698442399501800537 0.773387134075164795
0.468671202659606934 0.679188072681427002 0.689037322998046875
0.332500427961349487 0.247021570801734924 0.25803491473197937
0.462588757276535034 0.759796559810638428 0.499332606792449951
0.66574174165725708 0.197635114192962646 0.513130426406860352
0.57765042781829834 0.797057211399078369 0.164447799324989319
0.345035076141357422 0.325923919677734375 0.186610370874404907
0.559241235256195068 0.708899497985839844 0.706570208072662354
0.538341760635375977 0.723294079303741455 0.209757506847381592
0.54530024528503418 0.0487465262413024902 0.536042392253875732
0.557226836681365967 0.739960730075836182 0.469825595617294312
0.405644208192825317 0.317181766033172607 0.859833657741546631
0.632124125957489014 0.925607860088348389 0.394438505172729492
0.360155493021011353 0.54336845874786377 0.218842744827270508
0.328669190406799316 0.235629051923751831 0.271250128746032715
0.415623784065246582 0.343033730983734131 0.93232882022857666
0.53190910816192627 0.757979691028594971 0.780407190322875977
0.346909910440444946 0.82258296012878418 0.565357327461242676
0.458817213773727417 0.221495643258094788 0.098496660590171814
0.649075925350189209 0.428838282823562622 0.177813589572906494
0.322812587022781372 0.274516493082046509 0.216590747237205505
0.592908799648284912 0.28419804573059082 0.863743722438812256
0.416475147008895874 0.979352056980133057 0.458682477474212646
0.446733862161636353 0.106120608747005463 0.738701701164245605
0.528264164924621582 0.910101413726806641 0.756738603115081787
0.427538633346557617 0.279460996389389038 0.646429657936096191
0.465568006038665771 0.942345142364501953 0.500784337520599365
0.462966978549957275 0.14260806143283844 0.22338460385799408
0.660340011119842529 0.732620894908905029 0.742755591869354248
0.48872038722038269 0.782253682613372803 0.90527045726776123
0.586177647113800049 0.372749000787734985 0.929704844951629639
0.481604963541030884 0.423662543296813965 0.290555506944656372
0.513398945331573486 0.0888244658708572388 0.299960047006607056
0.501796841621398926 0.767871975898742676 0.825131654739379883
0.484524816274642944 0.426917552947998047 0.244724571704864502
0.545914888381958008 0.363743752241134644 0.366639584302902222
0.382756680250167847 0.237570449709892273 0.29587709903717041
0.370949685573577881 0.418458849191665649 0.730426788330078125
0.527298271656036377 0.93534386157989502 0.7406768798828125
0.619950771331787109 0.570384800434112549 0.0489101596176624298
0.616342782974243164 0.829007923603057861 0.191996842622756958
0.343752592802047729 0.681971192359924316 0.761252641677856445
0.372419089078903198 0.810708403587341309 0.746928393840789795
0.645543396472930908 0.645191311836242676 0.814361095428466797
0.451135843992233276 0.43242916464805603 0.678317129611968994
0.653119564056396484 0.249834418296813965 0.316920965909957886
0.354713708162307739 0.382462114095687866 0.13916441798210144
0.482538223266601562 0.488041043281555176 0.709171175956726074
0.52812647819519043 0.707256734371185303 0.774090826511383057
0.498016655445098877 0.232102915644645691 0.0838372334837913513
0.560794651508331299 0.329768925905227661 0.387865722179412842
0.653062105178833008 0.79950869083404541 0.610910177230834961
0.433234602212905884 0.690172731876373291 0.471988379955291748
0.409249037504196167 0.450903952121734619 0.769447982311248779
0.531234323978424072 0.756515681743621826 0.469740390777587891
0.516077697277069092 0.144032776355743408 0.170559152960777283
0.437706440687179565 0.242972791194915771 0.640775024890899658
0.399852067232131958 0.320196598768234253 0.430349111557006836
0.581262767314910889 0.290113002061843872 0.414763271808624268
0.52286297082901001 0.161881983280181885 0.128732919692993164
0.664322614669799805 0.836646497249603271 0.623853862285614014
0.640434443950653076 0.417556792497634888 0.745175838470458984
0.397127419710159302 0.66280519962310791 0.316564947366714478
0.568324685096740723 0.935866713523864746 0.722821295261383057
0.665669262409210205 0.2588309645652771 0.279111117124557495
0.471441924571990967 0.425080686807632446 0.324762165546417236
0.337039709091186523 0.83327019214630127 0.271352976560592651
0.384652793407440186 0.902044594287872314 0.318010538816452026
0.446873933076858521 0.416045278310775757 0.0200130268931388855
0.387389391660690308 0.59567636251449585 0.236492156982421875
0.43849983811378479 0.172147005796432495 0.730854332447052002
0.613119304180145264 0.678363800048828125 0.856545150279998779
0.374545067548751831 0.841686367988586426 0.217695534229278564
0.359627008438110352 0.523596823215484619 0.256164014339447021
0.370055735111236572 0.186943426728248596 0.623453855514526367
0.428512036800384521 0.31614348292350769 0.615241348743438721
0.465830147266387939 0.279976189136505127 0.561039149761199951
0.527324974536895752 0.246366798877716064 0.0746585801243782043
0.648031294345855713 0.541111588478088379 0.855794370174407959
0.407392323017120361 0.406335979700088501 0.709007382392883301
0.625801801681518555 0.342107683420181274 0.65747368335723877
0.491880744695663452 0.793835043907165527 0.495775610208511353
0.663755059242248535 0.870338678359985352 0.545152604579925537
0.641187548637390137 0.777191400527954102 0.650415360927581787
0.503974676132202148 0.454743087291717529 0.944756209850311279
0.396169811487197876 0.114881515502929688 0.645056366920471191
0.626000046730041504 0.72637474536895752 0.738125145435333252
0.607944607734680176 0.836282730102539062 0.186862245202064514
0.389827489852905273 0.758918881416320801 0.726630032062530518
0.488509953022003174 0.448427438735961914 0.950054645538330078
0.542267084121704102 0.805505812168121338 0.480744987726211548
0.63696897029876709 0.221284940838813782 0.252226829528808594
0.548252284526824951 0.125528514385223389 0.354643017053604126
0.472966670989990234 0.502201437950134277 0.943377792835235596
0.562042832374572754 0.364801257848739624 0.0491803437471389771
0.402215510606765747 0.519430756568908691 0.0644258931279182434
0.370580404996871948 0.479444444179534912 0.0535614006221294403
0.450580120086669922 0.922458469867706299 0.455281704664230347
0.610324382781982422 0.463690012693405151 0.845666885375976562
0.340558350086212158 0.819801211357116699 0.779521346092224121
0.617476165294647217 0.393691271543502808 0.70213162899017334
0.613465785980224609 0.717687666416168213 0.125211283564567566
0.536980748176574707 0.0684846118092536926 0.300921320915222168
0.65450054407119751 0.72189486026763916 0.261487275362014771
0.649604439735412598 0.525364279747009277 0.898796260356903076
0.451278835535049438 0.13019910454750061 0.260924041271209717
0.349344164133071899 0.77907860279083252 0.239702820777893066
0.41979449987411499 0.146917611360549927 0.702107489109039307
0.571157872676849365 0.0849110037088394165 0.666402518749237061
0.324875086545944214 0.602682232856750488 0.784865260124206543
0.364415168762207031 0.126366600394248962 0.509206175804138184
0.503155112266540527 0.245561540126800537 0.372151553630828857
0.558794260025024414 0.67377394437789917 0.292938947677612305
0.398265063762664795 0.381759494543075562 0.915759384632110596
0.515175580978393555 0.149275839328765869 0.321659892797470093
0.627670049667358398 0.291074782609939575 0.866654574871063232
0.342179715633392334 0.123352959752082825 0.433274447917938232
0.509825468063354492 0.521794557571411133 0.688887059688568115
0.350638449192047119 0.232533276081085205 0.284252464771270752
0.503245532512664795 0.104810759425163269 0.6879996657371521
0.329361051321029663 0.274685323238372803 0.223747104406356812
0.408761471509933472 0.17246536910533905 0.36374974250793457
0.489599794149398804 0.43400225043296814 0.187103837728500366
0.658950448036193848 0.264613509178161621 0.257366091012954712
0.496210396289825439 0.841726303100585938 0.871240675449371338
0.389686286449432373 0.762237608432769775 0.88346552848815918
0.407841265201568604 0.311397552490234375 0.925055384635925293
0.505412697792053223 0.129044443368911743 0.313389182090759277
0.409099549055099487 0.738946437835693359 0.118358366191387177
0.337222695350646973 0.682994484901428223 0.76041710376739502
0.54269111156463623 0.449262052774429321 0.742982983589172363
0.467256426811218262 0.100007906556129456 0.700201630592346191
0.628024935722351074 0.449509531259536743 0.242037564516067505
0.565733551979064941 0.339607894420623779 0.594713985919952393
0.51524043083190918 0.113824799656867981 0.211136311292648315
0.376918107271194458 0.198273405432701111 0.821111142635345459
0.599038362503051758 0.516194820404052734 0.0771426111459732056
0.50682908296585083 0.426629155874252319 0.835661590099334717
0.542503118515014648 0.102352984249591827 0.634318709373474121
0.625818073749542236 0.231478214263916016 0.340295076370239258
0.635861396789550781 0.833754062652587891 0.566732406616210938
0.386463344097137451 0.397713452577590942 0.702884197235107422
0.348720520734786987 0.177177473902702332 0.584914326667785645
0.547622561454772949 0.214393913745880127 0.370983868837356567
0.456548780202865601 0.151188760995864868 0.143750131130218506
0.514000415802001953 0.144939035177230835 0.145063027739524841
0.606895685195922852 0.642283976078033447 0.678347408771514893
0.511297941207885742 0.425590425729751587 0.130165547132492065
0.351260244846343994 0.383970081806182861 0.866054892539978027
0.369503229856491089 0.509102582931518555 0.783536434173583984
0.519186198711395264 0.436879515647888184 0.185801267623901367
0.60206073522567749 0.229608073830604553 0.857769131660461426
0.467633426189422607 0.519388675689697266 0.94817119836807251
0.36119842529296875 0.735085725784301758 0.437149137258529663
0.447065293788909912 0.532801389694213867 0.0135129904374480247
0.557707488536834717 0.17127525806427002 0.686747610569000244
0.491430670022964478 0.351749300956726074 0.372771352529525757
0.666727304458618164 0.289792776107788086 0.182223603129386902
0.633971750736236572 0.222340449690818787 0.287923574447631836
0.424209803342819214 0.785075962543487549 0.470644831657409668
0.592006266117095947 0.27297481894493103 0.620367348194122314
0.639844834804534912 0.462424606084823608 0.802372455596923828
0.631758332252502441 0.511941134929656982 0.838168740272521973
0.63264763355255127 0.635086655616760254 0.0804657116532325745
0.567845642566680908 0.98689877986907959 0.475721299648284912
0.45647883415222168 0.182189017534255981 0.132193192839622498
0.526321113109588623 0.793881237506866455 0.79553455114364624
0.50648796558380127 0.672747671604156494 0.53646320104598999
0.665616929531097412 0.292576223611831665 0.264045268297195435
0.557878851890563965 0.819518089294433594 0.811995267868041992
0.449996411800384521 0.152055099606513977 0.318618804216384888
0.350636899471282959 0.655318856239318848 0.234273940324783325
0.50635296106338501 0.530204713344573975 0.988654851913452148
0.350612074136734009 0.367468774318695068 0.214184761047363281
0.387603968381881714 0.466837137937545776 0.845133841037750244
0.523393750190734863 0.902715206146240234 0.474379837512969971
0.529134988784790039 0.670650303363800049 0.539691030979156494
0.368905127048492432 0.466185450553894043 0.76125943660736084
0.582382380962371826 0.454053431749343872 0.861310362815856934
0.539523601531982422 0.0194244831800460815 0.368905365467071533
0.362535953521728516 0.799311280250549316 0.800991594791412354
0.453834027051925659 0.995229721069335938 0.547669410705566406
0.338814526796340942 0.28125464916229248 0.224410340189933777
0.603211462497711182 0.515255212783813477 0.268342465162277222
0.573081493377685547 0.332883149385452271 0.893917441368103027
0.495560586452484131 0.746553182601928711 0.781685709953308105
0.435609489679336548 0.260969310998916626 0.408486604690551758
0.640108406543731689 0.62282949686050415 0.850442171096801758
0.397834122180938721 0.851915240287780762 0.510433495044708252
0.521672248840332031 0.10620473325252533 0.253503531217575073
0.462334930896759033 0.167286917567253113 0.697568356990814209
0.538692653179168701 0.740545868873596191 0.484521239995956421
0.527291238307952881 0.130828827619552612 0.34862634539604187
0.544034183025360107 0.02292671799659729 0.431117475032806396
0.406673341989517212 0.0821310281753540039 0.329392850399017334
0.59252321720123291 0.884108781814575195 0.251802384853363037
0.412164986133575439 0.406316787004470825 0.709678888320922852
0.511987507343292236 0.101869717240333557 0.215842530131340027
0.607177555561065674 0.0440806224942207336 0.456761658191680908
0.564574480056762695 0.636086046695709229 0.686659753322601318
0.567313432693481445 0.0275602210313081741 0.473073452711105347
0.487882882356643677 0.322759926319122314 0.0856402590870857239
0.567521512508392334 0.696107149124145508 0.477357268333435059
0.365973383188247681 0.634483993053436279 0.230648025870323181
0.345521599054336548 0.744400978088378906 0.72153782844543457
0.584356904029846191 0.719600200653076172 0.457236617803573608
0.475978612899780273 0.420426696538925171 0.327059894800186157
0.411929070949554443 0.215523883700370789 0.355493932962417603
0.522307515144348145 0.98421400785446167 0.619318962097167969
0.477964878082275391 0.986867189407348633 0.623616695404052734
0.35321199893951416 0.299157023429870605 0.860061585903167725
0.362832933664321899 0.220222517848014832 0.815745830535888672
0.556469976902008057 0.928745567798614502 0.469994127750396729
0.336720883846282959 0.298244059085845947 0.306402385234832764
0.471090406179428101 0.107311144471168518 0.250295370817184448
0.420929133892059326 0.295015424489974976 0.6133689284324646
0.537756741046905518 0.587865173816680908 0.677041232585906982
0.369243085384368896 0.648760139942169189 0.740473687648773193
0.644262373447418213 0.911531209945678711 0.458850681781768799
0.507767438888549805 0.725261151790618896 0.79492795467376709
0.558307111263275146 0.349134296178817749 0.0707479044795036316
0.3390083909034729 0.630715489387512207 0.22616422176361084
0.591374576091766357 0.705701529979705811 0.250010043382644653
0.44774278998374939 0.669763267040252686 0.546834945678710938
0.392705440521240234 0.855902373790740967 0.222686111927032471
0.586767613887786865 0.376390159130096436 0.65556710958480835
0.537406384944915771 0.735153853893280029 0.500121474266052246
0.634336352348327637 0.748527109622955322 0.387622982263565063
0.455951422452926636 0.735719859600067139 0.774326801300048828
0.424332857131958008 0.7641640305519104 0.767879366874694824
0.501527726650238037 0.70781552791595459 0.226673945784568787
0.621977269649505615 0.365880131721496582 0.67061460018157959
0.658516824245452881 0.344224125146865845 0.195161432027816772
0.460423022508621216 0.457918345928192139 0.0282352268695831299
0.610744178295135498 0.133291065692901611 0.739854037761688232
0.371778935194015503 0.104138679802417755 0.611153125762939453
0.5377158522605896 0.422445178031921387 0.172224894165992737
0.475538730621337891 0.328205853700637817 0.40996900200843811
0.487112909555435181 0.860209107398986816 0.500684976577758789
0.603443622589111328 0.149503186345100403 0.797192037105560303
0.382606714963912964 0.588090240955352783 0.0460605956614017487
0.349681735038757324 0.471011549234390259 0.748142719268798828
0.498135983943939209 0.946273386478424072 0.733877241611480713
