ply
format ascii 1.0
element vertex 762
property float x
property float y
property float z
end_header
0.501273274421691895 0.206384718418121338 0.11641625314950943
0.510827183723449707 0.225982457399368286 0.112408481538295746
0.498729318380355835 0.2071247398853302 0.10743296891450882
0.465814530849456787 0.978019058704376221 0.579807758331298828
0.459782063961029053 0.976085126399993896 0.558380722999572754
0.468403816223144531 0.97662043571472168 0.587853431701660156
0.470654428005218506 0.975862562656402588 0.596230506896972656
0.474745839834213257 0.97221064567565918 0.604327380657196045
0.390612930059432983 0.694667220115661621 0.0705494284629821777
0.391023039817810059 0.675578176975250244 0.0583833158016204834
0.473922640085220337 0.503146231174468994 0.942279219627380371
0.474082320928573608 0.499880850315093994 0.955960273742675781
0.586177647113800049 0.372749000787734985 0.929704844951629639
0.382078766822814941 0.363470882177352905 0.659183323383331299
0.373126387596130371 0.377775728702545166 0.688227593898773193
0.48872038722038269 0.782253682613372803 0.90527045726776123
0.405066400766372681 0.271654307842254639 0.388562917709350586
0.406574934720993042 0.248338788747787476 0.359908998012542725
0.412736594676971436 0.26634785532951355 0.359909027814865112
0.553242027759552002 0.17427457869052887 0.314665108919143677
0.543222129344940186 0.150538384914398193 0.340370148420333862
0.508638381958007812 0.196863114833831787 0.355228006839752197
0.509430229663848877 0.199300318956375122 0.336645334959030151
0.418022602796554565 0.283748328685760498 0.652873456478118896
0.604975700378417969 0.638443350791931152 0.679427266120910645
0.618026614189147949 0.685087621212005615 0.666065990924835205
0.617723464965820312 0.690147340297698975 0.666291892528533936
0.61767953634262085 0.687166869640350342 0.688390076160430908
0.616700589656829834 0.693164408206939697 0.689451217651367188
0.386463344097137451 0.397713452577590942 0.702884197235107422
0.380210399627685547 0.257828682661056519 0.65479046106338501
0.52410513162612915 0.309633165597915649 0.0645223855972290039
0.385110527276992798 0.602525830268859863 0.0427599214017391205
0.488567918539047241 0.459378659725189209 0.740924954414367676
0.497097194194793701 0.482174336910247803 0.731435894966125488
0.492153555154800415 0.443460971117019653 0.748839259147644043
0.490242928266525269 0.435270875692367554 0.772511839866638184
0.514249682426452637 0.106840901076793671 0.334541976451873779
0.525088965892791748 0.105991289019584656 0.347598761320114136
0.535413205623626709 0.128001362085342407 0.317318648099899292
0.401087015867233276 0.702789604663848877 0.428960651159286499
0.425005644559860229 0.955739200115203857 0.46332252025604248
0.565186500549316406 0.94054877758026123 0.31439971923828125
0.624173164367675781 0.906016767024993896 0.277880221605300903
0.632840633392333984 0.916292548179626465 0.322399765253067017
0.341382920742034912 0.197122156620025635 0.310466885566711426
0.373590022325515747 0.8683013916015625 0.248752087354660034
0.370681911706924438 0.895297110080718994 0.265953600406646729
0.627380728721618652 0.288150399923324585 0.448437631130218506
0.648311853408813477 0.267580479383468628 0.482320874929428101
0.42128637433052063 0.478235840797424316 0.274172097444534302
0.398526370525360107 0.488010406494140625 0.25761142373085022
0.398141592741012573 0.491449952125549316 0.246369451284408569
0.529134988784790039 0.670650303363800049 0.539691030979156494
0.475978612899780273 0.420426696538925171 0.327059894800186157
0.364199995994567871 0.737621128559112549 0.434403359889984131
0.397590398788452148 0.246691897511482239 0.849805831909179688
0.467256426811218262 0.100007906556129456 0.700201630592346191
0.353933960199356079 0.815087437629699707 0.262888014316558838
0.458817213773727417 0.221495643258094788 0.098496660590171814
0.605673313140869141 0.211912736296653748 0.790947794914245605
0.402215510606765747 0.519430756568908691 0.0644258931279182434
0.562723875045776367 0.338813990354537964 0.59386897087097168
0.566861271858215332 0.358199506998062134 0.597481250762939453
0.622950255870819092 0.912445127964019775 0.418869495391845703
0.593382060527801514 0.926555275917053223 0.404765486717224121
0.669052064418792725 0.253619641065597534 0.30044671893119812
0.524370491504669189 0.738502383232116699 0.775348186492919922
0.518325209617614746 0.738395869731903076 0.791196167469024658
0.416475147008895874 0.979352056980133057 0.458682477474212646
0.438546359539031982 0.122958816587924957 0.792235016822814941
0.423909813165664673 0.136061131954193115 0.808955073356628418
0.447947233915328979 0.120044827461242676 0.784236252307891846
0.423945009708404541 0.141352817416191101 0.81474071741104126
0.364466279745101929 0.853451788425445557 0.285466492176055908
0.645098447799682617 0.417024731636047363 0.184235513210296631
0.53069770336151123 0.394903689622879028 0.112386681139469147
0.484225958585739136 0.352400422096252441 0.0852408483624458313
0.480142563581466675 0.372342675924301147 0.0887280330061912537
0.518651247024536133 0.40394929051399231 0.0928760543465614319
0.396169811487197876 0.114881515502929688 0.645056366920471191
0.402707397937774658 0.13294433057308197 0.651331603527069092
0.371862888336181641 0.129738941788673401 0.628813326358795166
0.394558638334274292 0.149097979068756104 0.650589048862457275
0.398461222648620605 0.152266114950180054 0.645851254463195801
0.347962379455566406 0.499404966831207275 0.210196509957313538
0.499996036291122437 0.942479848861694336 0.559890329837799072
0.500626444816589355 0.274242252111434937 0.39963996410369873
0.657981812953948975 0.383878946304321289 0.187255397439002991
0.368294358253479004 0.381882041692733765 0.865334510803222656
0.379792481660842896 0.553567409515380859 0.0402443036437034607
0.63696897029876709 0.221284940838813782 0.252226829528808594
0.384644865989685059 0.856630921363830566 0.250701427459716797
0.533159434795379639 0.258969992399215698 0.345008105039596558
0.540705502033233643 0.229883104562759399 0.365591555833816528
0.606683135032653809 0.18128243088722229 0.707904994487762451
0.643651485443115234 0.355208456516265869 0.163073614239692688
0.65596318244934082 0.367554306983947754 0.147241488099098206
0.65924537181854248 0.337617576122283936 0.206770375370979309
0.644952178001403809 0.364454686641693115 0.234041333198547363
0.382756680250167847 0.237570449709892273 0.29587709903717041
0.489593237638473511 0.535920560359954834 0.657659649848937988
0.514667630195617676 0.545220613479614258 0.670292258262634277
0.514723241329193115 0.5486411452293396 0.668860435485839844
0.515754938125610352 0.544500410556793213 0.64605790376663208
0.557156920433044434 0.336489886045455933 0.0366681218147277832
0.338432997465133667 0.680350601673126221 0.758830547332763672
0.336943119764328003 0.692297518253326416 0.761249065399169922
0.454474300146102905 0.376253575086593628 0.0311183296144008636
0.507424890995025635 0.148938894271850586 0.170648664236068726
0.445095688104629517 0.576693236827850342 0.0103890988975763321
0.663024067878723145 0.229712009429931641 0.225299403071403503
0.507023394107818604 0.727548122406005859 0.0920199677348136902
0.447065293788909912 0.532801389694213867 0.0135129904374480247
0.550252079963684082 0.980163753032684326 0.526771903038024902
0.552540361881256104 0.968390405178070068 0.520292401313781738
0.533848583698272705 0.970833241939544678 0.544972777366638184
0.513455748558044434 0.14016413688659668 0.168969109654426575
0.649075925350189209 0.428838282823562622 0.177813589572906494
0.517304718494415283 0.0802369788289070129 0.293671309947967529
0.508214950561523438 0.0960621237754821777 0.270918965339660645
0.521013379096984863 0.0623884797096252441 0.311081409454345703
0.645543396472930908 0.645191311836242676 0.814361095428466797
0.560794651508331299 0.329768925905227661 0.387865722179412842
0.546254098415374756 0.301792770624160767 0.388035893440246582
0.556926250457763672 0.306803524494171143 0.373358488082885742
0.558302342891693115 0.301611095666885376 0.374393284320831299
0.554410696029663086 0.304448962211608887 0.371974676847457886
0.370580404996871948 0.479444444179534912 0.0535614006221294403
0.641187548637390137 0.777191400527954102 0.650415360927581787
0.335733294486999512 0.152099624276161194 0.393907815217971802
0.351532787084579468 0.148352816700935364 0.405267596244812012
0.350834101438522339 0.144922643899917603 0.409778892993927002
0.350290745496749878 0.158263951539993286 0.360426723957061768
0.344439804553985596 0.144416317343711853 0.416636258363723755
0.346226751804351807 0.172541067004203796 0.369334965944290161
0.331688165664672852 0.143757492303848267 0.420717954635620117
0.598717808723449707 0.144884184002876282 0.308050006628036499
0.615864574909210205 0.616158545017242432 0.113804623484611511
0.621654093265533447 0.635186731815338135 0.125455006957054138
0.618619859218597412 0.638146698474884033 0.127112656831741333
0.629164934158325195 0.599496304988861084 0.117050826549530029
0.618606805801391602 0.603814005851745605 0.10100807249546051
0.547231137752532959 0.359757035970687866 0.584355175495147705
0.603324472904205322 0.398824095726013184 0.696308493614196777
0.469954431056976318 0.354570925235748291 0.0673671290278434753
0.460590869188308716 0.0834673047065734863 0.712444543838500977
0.478162139654159546 0.0761605501174926758 0.719394505023956299
0.445449143648147583 0.458273857831954956 0.949643790721893311
0.431473433971405029 0.434371262788772583 0.940489828586578369
0.447481989860534668 0.423901647329330444 0.941339731216430664
0.430952519178390503 0.491449981927871704 0.960811734199523926
0.456487655639648438 0.489153504371643066 0.960009157657623291
0.602110028266906738 0.825713038444519043 0.200167551636695862
0.36484825611114502 0.683734893798828125 0.757062196731567383
0.522805929183959961 0.0592105202376842499 0.302055031061172485
0.531449794769287109 0.0461410880088806152 0.319140791893005371
0.539912760257720947 0.0640390366315841675 0.319126337766647339
0.621220588684082031 0.810979664325714111 0.176138967275619507
0.621646583080291748 0.824991285800933838 0.179715067148208618
0.601537466049194336 0.826692759990692139 0.181421726942062378
0.354713708162307739 0.382462114095687866 0.13916441798210144
0.496718764305114746 0.498346328735351562 0.94962698221206665
0.484918802976608276 0.266856968402862549 0.0975374653935432434
0.456548780202865601 0.151188760995864868 0.143750131130218506
0.44774278998374939 0.669763267040252686 0.546834945678710938
0.644452214241027832 0.264232635498046875 0.526416242122650146
0.645752251148223877 0.271595150232315063 0.481303781270980835
0.516026020050048828 0.73763585090637207 0.513942599296569824
0.51810377836227417 0.656861305236816406 0.582643866539001465
0.466615408658981323 0.667306423187255859 0.573305308818817139
0.460225552320480347 0.666272580623626709 0.56410682201385498
0.666351616382598877 0.638754010200500488 0.12379620224237442
0.610013604164123535 0.702727138996124268 0.665897488594055176
0.604356229305267334 0.69403231143951416 0.698270797729492188
0.622201502323150635 0.724534749984741211 0.688419103622436523
0.625386893749237061 0.729681015014648438 0.685867130756378174
0.557707488536834717 0.17127525806427002 0.686747610569000244
0.559457838535308838 0.192185163497924805 0.711639940738677979
0.433461695909500122 0.507626712322235107 0.0268061533570289612
0.606661200523376465 0.67760920524597168 0.13195134699344635
0.603870809078216553 0.687706172466278076 0.187235027551651001
0.615725517272949219 0.704592645168304443 0.213735520839691162
0.38012087345123291 0.884217977523803711 0.535805404186248779
0.669417679309844971 0.772764861583709717 0.700081825256347656
0.671863257884979248 0.773412823677062988 0.681846082210540771
0.548977315425872803 0.524613857269287109 0.317664235830307007
0.633971750736236572 0.222340449690818787 0.287923574447631836
0.423918724060058594 0.689481079578399658 0.103296816349029541
0.580169200897216797 0.929403126239776611 0.329525262117385864
0.532083213329315186 0.434876710176467896 0.806673169136047363
0.499992430210113525 0.424094974994659424 0.817528784275054932
0.431791305541992188 0.679289340972900391 0.748264133930206299
0.605693042278289795 0.538567483425140381 0.289502739906311035
0.607087612152099609 0.534330248832702637 0.280230253934860229
0.57712477445602417 0.290100246667861938 0.418637990951538086
0.594540715217590332 0.279211431741714478 0.427373319864273071
0.45647883415222168 0.182189017534255981 0.132193192839622498
0.332097887992858887 0.64460676908493042 0.2178630530834198
0.536406993865966797 0.276922404766082764 0.630014002323150635
0.541892826557159424 0.253830373287200928 0.607476770877838135
0.563573300838470459 0.218579471111297607 0.606572210788726807
0.486098289489746094 0.684024035930633545 0.664412319660186768
0.460517555475234985 0.663974106311798096 0.690582573413848877
0.578213810920715332 0.739562392234802246 0.760209560394287109
0.471441924571990967 0.425080686807632446 0.324762165546417236
0.346554100513458252 0.369683265686035156 0.86665809154510498
0.626885533332824707 0.715290665626525879 0.777098119258880615
0.644365131855010986 0.264930158853530884 0.27439647912979126
0.593589425086975098 0.253297567367553711 0.427849739789962769
0.591586768627166748 0.253937065601348877 0.424308419227600098
0.585047245025634766 0.254062741994857788 0.416549861431121826
0.589734733104705811 0.255741894245147705 0.421248465776443481
0.439312517642974854 0.139207601547241211 0.18793804943561554
0.446745038032531738 0.142152860760688782 0.170880615711212158
0.446693778038024902 0.146639615297317505 0.161043524742126465
0.443012714385986328 0.14492209255695343 0.155254706740379333
0.63807755708694458 0.230927795171737671 0.468387246131896973
0.654018759727478027 0.211367815732955933 0.50883185863494873
0.654269814491271973 0.201322823762893677 0.512700974941253662
0.622540593147277832 0.258956670761108398 0.437782794237136841
0.600708901882171631 0.257815361022949219 0.437730133533477783
0.380150049924850464 0.389890789985656738 0.205352529883384705
0.454310357570648193 0.986052930355072021 0.554930031299591064
0.384652793407440186 0.902044594287872314 0.318010538816452026
0.420190900564193726 0.727915167808532715 0.114552631974220276
0.423976659774780273 0.439946830272674561 0.669213950634002686
0.494944632053375244 0.683588385581970215 0.682338833808898926
0.483637422323226929 0.677857816219329834 0.654119610786437988
0.482630908489227295 0.67708122730255127 0.648860812187194824
0.505910992622375488 0.688635468482971191 0.709570586681365967
0.48117375373840332 0.673650741577148438 0.693282067775726318
0.428283393383026123 0.666378974914550781 0.0793343931436538696
0.405801862478256226 0.389643490314483643 0.696275472640991211
0.482144832611083984 0.432554870843887329 0.86196136474609375
0.645126283168792725 0.787747561931610107 0.524578869342803955
0.645120382308959961 0.794790327548980713 0.513433575630187988
0.645290076732635498 0.796129822731018066 0.520580947399139404
0.383182406425476074 0.145953744649887085 0.730361640453338623
0.371157854795455933 0.217878416180610657 0.299341827630996704
0.384573459625244141 0.659921944141387939 0.225432947278022766
0.359027355909347534 0.24950253963470459 0.337868034839630127
0.36115032434463501 0.271379262208938599 0.319495171308517456
0.387482315301895142 0.267216652631759644 0.345629870891571045
0.366643905639648438 0.290422290563583374 0.328753352165222168
0.651566386222839355 0.188984304666519165 0.665396988391876221
0.654247760772705078 0.194141387939453125 0.626159727573394775
0.6496010422706604 0.196634486317634583 0.621894955635070801
0.429293572902679443 0.984057903289794922 0.485931992530822754
0.534224212169647217 0.0428798012435436249 0.343418329954147339
0.539688766002655029 0.0545226670801639557 0.321433871984481812
0.537597775459289551 0.0280473604798316956 0.35918840765953064
0.524679243564605713 0.0489076115190982819 0.321797668933868408
0.529208481311798096 0.855780541896820068 0.501810252666473389
0.344759166240692139 0.807234287261962891 0.531606376171112061
0.429712742567062378 0.108466379344463348 0.323221921920776367
0.351116567850112915 0.550420165061950684 0.766460180282592773
0.519810497760772705 0.124403327703475952 0.173840463161468506
0.523049533367156982 0.119094438850879669 0.185777187347412109
0.466214537620544434 0.439077138900756836 0.797104358673095703
0.488851666450500488 0.14322894811630249 0.195030972361564636
0.36372789740562439 0.169611379504203796 0.757547974586486816
0.518240869045257568 0.920452892780303955 0.716651201248168945
0.468255817890167236 0.200899228453636169 0.330414682626724243
0.398599117994308472 0.464527517557144165 0.0635614395141601562
0.409249037504196167 0.450903952121734619 0.769447982311248779
0.501479923725128174 0.8514975905418396 0.855329573154449463
0.655303776264190674 0.234404772520065308 0.344493776559829712
0.386293977499008179 0.181846320629119873 0.36083751916885376
0.640434443950653076 0.417556792497634888 0.745175838470458984
0.454605758190155029 0.1080937460064888 0.720663845539093018
0.443916618824005127 0.120352625846862793 0.740776419639587402
0.351149588823318481 0.484414279460906982 0.795316219329833984
0.349949032068252563 0.876007139682769775 0.326677381992340088
0.439614593982696533 0.295244604349136353 0.430253356695175171
0.454885572195053101 0.266287654638290405 0.417189240455627441
0.437609672546386719 0.305341452360153198 0.416449695825576782
0.652107954025268555 0.423546850681304932 0.752868115901947021
0.486595779657363892 0.715398550033569336 0.828650414943695068
0.446620941162109375 0.695423007011413574 0.757271468639373779
0.471225142478942871 0.96267545223236084 0.536784827709197998
0.357611387968063354 0.166585922241210938 0.596491873264312744
0.484524816274642944 0.426917552947998047 0.244724571704864502
0.36930769681930542 0.278766125440597534 0.862619876861572266
0.565620183944702148 0.786081850528717041 0.793489575386047363
0.618756890296936035 0.721485495567321777 0.738648295402526855
0.633097469806671143 0.38447299599647522 0.186166435480117798
0.631329178810119629 0.383906185626983643 0.187809720635414124
0.390533328056335449 0.69816887378692627 0.726794540882110596
0.464144051074981689 0.343148976564407349 0.0315251909196376801
0.401796877384185791 0.324898689985275269 0.583370089530944824
0.513960063457489014 0.623239636421203613 0.630047440528869629
0.514604628086090088 0.666581571102142334 0.532492518424987793
0.589805960655212402 0.775397837162017822 0.157134726643562317
0.578211367130279541 0.786272048950195312 0.176558718085289001
0.59070819616317749 0.786564767360687256 0.190455883741378784
0.580006897449493408 0.782252013683319092 0.196270987391471863
0.487876296043395996 0.736245512962341309 0.0561147183179855347
0.472146928310394287 0.716004252433776855 0.0459051802754402161
0.52415543794631958 0.258577972650527954 0.0647587105631828308
0.672920584678649902 0.260594934225082397 0.292346268892288208
0.538341760635375977 0.723294079303741455 0.209757506847381592
0.457499802112579346 0.637478232383728027 0.0371160060167312622
0.441152393817901611 0.631633102893829346 0.023463001474738121
0.610212445259094238 0.494997143745422363 0.873616218566894531
0.628433167934417725 0.538302302360534668 0.87326890230178833
0.624464690685272217 0.48471108078956604 0.864654004573822021
0.640157997608184814 0.519332706928253174 0.866300523281097412
0.661325216293334961 0.799668431282043457 0.581293046474456787
0.65768587589263916 0.84183204174041748 0.60099029541015625
0.669681012630462646 0.563142597675323486 0.825149297714233398
0.418214023113250732 0.433330893516540527 0.805805623531341553
0.424697041511535645 0.427380651235580444 0.812567472457885742
0.416850864887237549 0.43893095850944519 0.846880793571472168
0.454256027936935425 0.412321776151657104 0.835284531116485596
0.327983975410461426 0.806372344493865967 0.586105227470397949
0.566482722759246826 0.260260850191116333 0.630915999412536621
0.32376396656036377 0.801637411117553711 0.615778267383575439
0.344318985939025879 0.855465233325958252 0.64063340425491333
0.343836426734924316 0.850093603134155273 0.660350501537322998
0.582182884216308594 0.322900742292404175 0.648716270923614502
0.384974211454391479 0.737549424171447754 0.431259483098983765
0.383257359266281128 0.921297013759613037 0.329655587673187256
0.379955291748046875 0.908884525299072266 0.288277745246887207
0.526473343372344971 0.0953549817204475403 0.223270460963249207
0.357037961483001709 0.756105661392211914 0.466915816068649292
0.548445284366607666 0.310813814401626587 0.623726069927215576
0.564512789249420166 0.812311053276062012 0.188760146498680115
0.398892432451248169 0.818939030170440674 0.183254644274711609
0.477746665477752686 0.187656447291374207 0.123286955058574677
0.645785808563232422 0.289771437644958496 0.86484760046005249
0.346046805381774902 0.652768135070800781 0.776917994022369385
0.344456315040588379 0.627013921737670898 0.787514150142669678
0.345518946647644043 0.648797512054443359 0.761546909809112549
0.34593924880027771 0.615047276020050049 0.770330607891082764
0.354310393333435059 0.604767382144927979 0.725695192813873291
0.458973973989486694 0.69458770751953125 0.896627604961395264
0.467810392379760742 0.700109779834747314 0.908825337886810303
0.455650538206100464 0.669245064258575439 0.952337205410003662
0.467670977115631104 0.687300264835357666 0.923965930938720703
0.473916113376617432 0.639811933040618896 0.948628485202789307
0.458897262811660767 0.670000255107879639 0.943993806838989258
0.393346428871154785 0.784961044788360596 0.471049278974533081
0.585794508457183838 0.263577431440353394 0.897681295871734619
0.400768309831619263 0.123699314892292023 0.379632622003555298
0.397273808717727661 0.125184580683708191 0.35043942928314209
0.425468951463699341 0.122495710849761963 0.354317694902420044
0.385526478290557861 0.139835134148597717 0.414026618003845215
0.542666733264923096 0.539372265338897705 0.664367496967315674
0.533780574798583984 0.540165960788726807 0.687097251415252686
0.373718202114105225 0.365644663572311401 0.182089641690254211
0.408961176872253418 0.181731909513473511 0.35315704345703125
0.665669262409210205 0.2588309645652771 0.279111117124557495
0.644629240036010742 0.438669830560684204 0.115274123847484589
0.483043253421783447 0.983359992504119873 0.663066446781158447
0.480961054563522339 0.972504913806915283 0.66310197114944458
0.480872452259063721 0.971878290176391602 0.652391016483306885
0.486348718404769897 0.976007699966430664 0.681490123271942139
0.589651286602020264 0.349842935800552368 0.635227739810943604
0.644351303577423096 0.878962457180023193 0.509531915187835693
0.628691554069519043 0.881316423416137695 0.535156011581420898
0.505412697792053223 0.129044443368911743 0.313389182090759277
0.347128242254257202 0.345794707536697388 0.181050658226013184
0.482538223266601562 0.488041043281555176 0.709171175956726074
0.478196084499359131 0.47196274995803833 0.725306689739227295
0.481308162212371826 0.473526865243911743 0.727228462696075439
0.660217404365539551 0.309105336666107178 0.247148096561431885
0.3390083909034729 0.630715489387512207 0.22616422176361084
0.531234323978424072 0.756515681743621826 0.469740390777587891
0.549804627895355225 0.760016560554504395 0.491086810827255249
0.406428486108779907 0.472810596227645874 0.289803773164749146
0.414979547262191772 0.712763965129852295 0.090600229799747467
0.618835091590881348 0.83279186487197876 0.193786278367042542
0.619186282157897949 0.828027665615081787 0.191064819693565369
0.619254827499389648 0.822698116302490234 0.188091039657592773
0.493521153926849365 0.454672336578369141 0.904692530632019043
0.490055263042449951 0.465569257736206055 0.918715834617614746
0.491368949413299561 0.460649043321609497 0.913915455341339111
0.48852500319480896 0.470240175724029541 0.924221456050872803
0.487140893936157227 0.476073473691940308 0.928567886352539062
0.484485059976577759 0.487018972635269165 0.936436712741851807
0.467888295650482178 0.496520072221755981 0.936732947826385498
0.49118506908416748 0.496413290500640869 0.941941440105438232
0.493190526962280273 0.458861470222473145 0.945714771747589111
0.490724295377731323 0.434705495834350586 0.897569417953491211
0.368496537208557129 0.793728411197662354 0.508539438247680664
0.639844834804534912 0.462424606084823608 0.802372455596923828
0.491527527570724487 0.965849995613098145 0.704067409038543701
0.493022710084915161 0.967502355575561523 0.693007409572601318
0.491039842367172241 0.970816373825073242 0.698833882808685303
0.473053425550460815 0.918159365653991699 0.486527323722839355
0.466953516006469727 0.42135930061340332 0.0997934341430664062
0.516884267330169678 0.479171991348266602 0.685834527015686035
0.532751262187957764 0.486042022705078125 0.716798603534698486
0.501549243927001953 0.489140063524246216 0.724796712398529053
0.565707504749298096 0.715353250503540039 0.46813654899597168
0.500134587287902832 0.616365253925323486 0.637550532817840576
0.418969035148620605 0.427545160055160522 0.710801482200622559
0.428512036800384521 0.31614348292350769 0.615241348743438721
0.403166651725769043 0.30432477593421936 0.632614731788635254
0.409266740083694458 0.303626477718353271 0.605558156967163086
0.411929070949554443 0.215523883700370789 0.355493932962417603
0.522148311138153076 0.483254194259643555 0.972252428531646729
0.491145938634872437 0.495923310518264771 0.971910417079925537
0.607571303844451904 0.483449995517730713 0.264988094568252563
0.590763747692108154 0.504070639610290527 0.257525116205215454
0.585147500038146973 0.507077693939208984 0.256431698799133301
0.579761087894439697 0.510911226272583008 0.257724225521087646
0.406744003295898438 0.102313026785850525 0.296964585781097412
0.433840781450271606 0.10371379554271698 0.285821408033370972
0.396293461322784424 0.206600472331047058 0.807291984558105469
0.391464471817016602 0.195112437009811401 0.786644160747528076
0.575633645057678223 0.460062086582183838 0.842718124389648438
0.511104941368103027 0.695689022541046143 0.545810461044311523
0.518126010894775391 0.909639894962310791 0.775893032550811768
0.560734272003173828 0.91711193323135376 0.762274742126464844
0.355299681425094604 0.0757760703563690186 0.466812670230865479
0.50195544958114624 0.423150509595870972 0.144656896591186523
0.505767405033111572 0.438750207424163818 0.140029802918434143
0.333469092845916748 0.324273675680160522 0.27600175142288208
0.451278835535049438 0.13019910454750061 0.260924041271209717
0.542552709579467773 0.28216138482093811 0.0622334517538547516
0.339989304542541504 0.479599177837371826 0.802808761596679688
0.455951422452926636 0.735719859600067139 0.774326801300048828
0.438646465539932251 0.75392836332321167 0.760949432849884033
0.450571835041046143 0.727135360240936279 0.773790717124938965
0.641286730766296387 0.698442399501800537 0.773387134075164795
0.4504069983959198 0.709675073623657227 0.105860099196434021
0.454666584730148315 0.715383589267730713 0.124734945595264435
0.376941293478012085 0.191598027944564819 0.805319368839263916
0.384290218353271484 0.207553103566169739 0.818284988403320312
0.369716018438339233 0.216055065393447876 0.825555503368377686
0.401442617177963257 0.196338564157485962 0.816346704959869385
0.403987735509872437 0.204497724771499634 0.84012758731842041
0.553254067897796631 0.988521456718444824 0.580887198448181152
0.424209803342819214 0.785075962543487549 0.470644831657409668
0.342118322849273682 0.503928124904632568 0.795898020267486572
0.385559499263763428 0.876292526721954346 0.311129182577133179
0.375076472759246826 0.87083357572555542 0.28099513053894043
0.377542167901992798 0.89896625280380249 0.327112853527069092
0.634336352348327637 0.748527109622955322 0.387622982263565063
0.620160400867462158 0.295364618301391602 0.868605315685272217
0.342743754386901855 0.159244701266288757 0.358713656663894653
0.480347573757171631 0.676562368869781494 0.61704552173614502
0.632101297378540039 0.490292608737945557 0.26576697826385498
0.606689751148223877 0.901434957981109619 0.266371935606002808
0.521888077259063721 0.088706478476524353 0.299726009368896484
0.338490068912506104 0.208211734890937805 0.618064939975738525
0.347800880670547485 0.186554521322250366 0.605729460716247559
0.35497283935546875 0.212957814335823059 0.629339337348937988
0.356110990047454834 0.206273287534713745 0.624891042709350586
0.563871622085571289 0.879145324230194092 0.466361671686172485
0.56358790397644043 0.885798513889312744 0.468528330326080322
0.574976027011871338 0.900253534317016602 0.438091576099395752
0.577971994876861572 0.91299283504486084 0.447579085826873779
0.65020143985748291 0.801382780075073242 0.644671738147735596
0.664526879787445068 0.556717395782470703 0.0994155704975128174
0.574778437614440918 0.430913448333740234 0.764743387699127197
0.475538730621337891 0.328205853700637817 0.40996900200843811
0.4342670738697052 0.725334525108337402 0.751852273941040039
0.391294240951538086 0.894956648349761963 0.317271530628204346
0.377244412899017334 0.902356743812561035 0.335124194622039795
0.523909509181976318 0.850805759429931641 0.787770390510559082
0.512597858905792236 0.81961667537689209 0.804819107055664062
0.52636265754699707 0.853770673274993896 0.793665587902069092
0.519703030586242676 0.821578264236450195 0.80704498291015625
0.5211142897605896 0.223846361041069031 0.0901997834444046021
0.37776714563369751 0.628712654113769531 0.290574729442596436
0.406671851873397827 0.644214510917663574 0.282455116510391235
0.556469976902008057 0.928745567798614502 0.469994127750396729
0.604995071887969971 0.574293076992034912 0.0987039431929588318
0.340565264225006104 0.1451130211353302 0.516230940818786621
0.33445623517036438 0.144270837306976318 0.493463575839996338
0.540889501571655273 0.712414443492889404 0.762253284454345703
0.534730434417724609 0.73533475399017334 0.794530034065246582
0.628605008125305176 0.701682209968566895 0.179400399327278137
0.410793989896774292 0.236719384789466858 0.63007962703704834
0.593729555606842041 0.738171935081481934 0.855608999729156494
0.426174312829971313 0.119111090898513794 0.227090492844581604
0.434650421142578125 0.119122087955474854 0.209256768226623535
0.438321083784103394 0.119037091732025146 0.200874373316764832
0.483173072338104248 0.0652249753475189209 0.697734653949737549
0.492625772953033447 0.0753396674990653992 0.686732709407806396
0.494732499122619629 0.0760526731610298157 0.682386457920074463
0.463092595338821411 0.0789631158113479614 0.756949543952941895
0.474148809909820557 0.0775074213743209839 0.72488480806350708
0.447336912155151367 0.101067870855331421 0.770213305950164795
0.453636765480041504 0.113030396401882172 0.769987404346466064
0.442947179079055786 0.103703893721103668 0.775526583194732666
0.632985234260559082 0.76999056339263916 0.440531432628631592
0.388082385063171387 0.483604729175567627 0.827571213245391846
0.389158278703689575 0.478876292705535889 0.829261243343353271
0.387657850980758667 0.488774627447128296 0.824788808822631836
0.397573500871658325 0.460105925798416138 0.846604466438293457
0.387296855449676514 0.494295388460159302 0.820603609085083008
0.380349725484848022 0.836863398551940918 0.245544984936714172
0.459749072790145874 0.464228451251983643 0.92031705379486084
0.369132012128829956 0.113149553537368774 0.518814980983734131
0.351284980773925781 0.118076629936695099 0.509066581726074219
0.352877974510192871 0.0780786722898483276 0.508962392807006836
0.37797132134437561 0.141744077205657959 0.55454939603805542
0.511297941207885742 0.425590425729751587 0.130165547132492065
0.388534754514694214 0.688812196254730225 0.760620236396789551
0.37282717227935791 0.152295678853988647 0.559072971343994141
0.641022264957427979 0.256256937980651855 0.476517766714096069
0.615224778652191162 0.237717092037200928 0.856774270534515381
0.648600876331329346 0.737510859966278076 0.726862192153930664
0.625317811965942383 0.663679718971252441 0.673083722591400146
0.62805253267288208 0.675263285636901855 0.680328249931335449
0.626119256019592285 0.672214269638061523 0.68143850564956665
0.62620389461517334 0.67650371789932251 0.681689083576202393
0.52679818868637085 0.294728100299835205 0.578875899314880371
0.493149846792221069 0.288974642753601074 0.565353572368621826
0.489535093307495117 0.288832038640975952 0.562099993228912354
0.647440791130065918 0.771538436412811279 0.46916496753692627
0.624507665634155273 0.78764808177947998 0.471344709396362305
0.623984098434448242 0.789160788059234619 0.474106818437576294
0.621432006359100342 0.788473725318908691 0.471168696880340576
0.478057533502578735 0.183257758617401123 0.66003793478012085
0.499997228384017944 0.210237964987754822 0.646983444690704346
0.49999237060546875 0.202727913856506348 0.631386876106262207
0.388417869806289673 0.796377718448638916 0.492525696754455566
0.6610909104347229 0.868795096874237061 0.561784148216247559
0.656188726425170898 0.86824876070022583 0.554114043712615967
0.653966128826141357 0.870211482048034668 0.545409739017486572
0.652017533779144287 0.880396127700805664 0.543954432010650635
0.514052987098693848 0.332087337970733643 0.558545470237731934
0.508919358253479004 0.321938544511795044 0.586470365524291992
0.48188367486000061 0.318737834692001343 0.559350550174713135
0.479980647563934326 0.320966601371765137 0.555181920528411865
0.479522407054901123 0.32535320520401001 0.550246238708496094
0.478987306356430054 0.33083680272102356 0.545111298561096191
0.355418026447296143 0.0751155167818069458 0.494378954172134399
0.358795583248138428 0.0741182789206504822 0.49482494592666626
0.353852301836013794 0.0759930238127708435 0.494137495756149292
0.357131630182266235 0.0753787681460380554 0.504115283489227295
0.352328896522521973 0.0769050866365432739 0.49388471245765686
0.592771649360656738 0.696230828762054443 0.46044275164604187
0.628164768218994141 0.259339094161987305 0.875106930732727051
0.594140410423278809 0.242187857627868652 0.854852557182312012
0.593819618225097656 0.295959442853927612 0.86079031229019165
0.617133855819702148 0.261556327342987061 0.830575764179229736
0.590796709060668945 0.29709094762802124 0.861830770969390869
0.477025836706161499 0.643020689487457275 0.360575079917907715
0.527142524719238281 0.972031712532043457 0.642575323581695557
0.483866125345230103 0.967241048812866211 0.618297994136810303
0.504436850547790527 0.234158918261528015 0.627210378646850586
0.46308860182762146 0.933106541633605957 0.47662469744682312
0.46027904748916626 0.925886213779449463 0.472162961959838867
0.400489211082458496 0.24533390998840332 0.884864628314971924
0.33601611852645874 0.764184415340423584 0.71116328239440918
0.433634430170059204 0.453706711530685425 0.664122879505157471
0.442630529403686523 0.715096056461334229 0.105458103120326996
0.466162770986557007 0.684037923812866211 0.719758033752441406
0.350638449192047119 0.232533276081085205 0.284252464771270752
0.346300393342971802 0.548189997673034668 0.807613909244537354
0.339739143848419189 0.578969120979309082 0.782113254070281982
0.333472371101379395 0.527183055877685547 0.832103252410888672
0.658950448036193848 0.264613509178161621 0.257366091012954712
0.365359306335449219 0.783535361289978027 0.717012524604797363
0.357902497053146362 0.788459479808807373 0.725872516632080078
0.368815958499908447 0.824373364448547363 0.697690188884735107
0.371352195739746094 0.795626223087310791 0.74771571159362793
0.340728670358657837 0.819168329238891602 0.679870724678039551
0.642415165901184082 0.254971295595169067 0.226509183645248413
0.514062047004699707 0.114083699882030487 0.180889204144477844
0.586767613887786865 0.376390159130096436 0.65556710958480835
0.635738551616668701 0.201893508434295654 0.596958041191101074
0.636818051338195801 0.212833449244499207 0.593786954879760742
0.479857802391052246 0.976387619972229004 0.66420978307723999
0.479382336139678955 0.978712260723114014 0.653210163116455078
0.479580074548721313 0.984691858291625977 0.651838362216949463
0.479950934648513794 0.985993087291717529 0.649359405040740967
0.371998369693756104 0.109717115759849548 0.618742525577545166
0.366861939430236816 0.114177115261554718 0.607270658016204834
0.361545830965042114 0.100510470569133759 0.603449821472167969
0.370303928852081299 0.108664616942405701 0.634624242782592773
0.361059516668319702 0.11668483167886734 0.633689224720001221
0.584311604499816895 0.459150969982147217 0.152914360165596008
0.523393750190734863 0.902715206146240234 0.474379837512969971
0.543088674545288086 0.81593012809753418 0.788448452949523926
0.604347765445709229 0.71445012092590332 0.753713309764862061
0.45924687385559082 0.345982551574707031 0.446002036333084106
0.470420479774475098 0.34428560733795166 0.497183889150619507
0.667019009590148926 0.197567611932754517 0.54242020845413208
0.644850313663482666 0.196233883500099182 0.55048072338104248
0.54129493236541748 0.419425785541534424 0.972707748413085938
0.512107193470001221 0.0750182345509529114 0.627876043319702148
0.528264164924621582 0.910101413726806641 0.756738603115081787
0.520341932773590088 0.610014557838439941 0.315160423517227173
0.508594036102294922 0.642545819282531738 0.289846420288085938
0.500858604907989502 0.643688380718231201 0.296335041522979736
0.506747782230377197 0.647542357444763184 0.286654263734817505
0.505477726459503174 0.645209193229675293 0.290049105882644653
0.500624656677246094 0.648076415061950684 0.292072683572769165
0.502325475215911865 0.650117933750152588 0.288267344236373901
0.53616786003112793 0.376003295183181763 0.38016858696937561
0.557535290718078613 0.176918938755989075 0.67530059814453125
0.669854104518890381 0.810540974140167236 0.649534761905670166
0.406690716743469238 0.892203152179718018 0.404861330986022949
0.381160855293273926 0.906669139862060547 0.427830129861831665
0.381369024515151978 0.907813847064971924 0.372224539518356323
0.394127041101455688 0.293687880039215088 0.876779317855834961
0.64183497428894043 0.221562191843986511 0.362355589866638184
0.64709007740020752 0.225452184677124023 0.335295289754867554
0.647079825401306152 0.226513966917991638 0.3315390944480896
0.661107897758483887 0.234774306416511536 0.34592708945274353
0.665497899055480957 0.243058130145072937 0.31747812032699585
0.347466498613357544 0.385681420564651489 0.119584374129772186
0.503531455993652344 0.551222145557403564 0.994699001312255859
0.508023440837860107 0.531382083892822266 0.994366466999053955
0.64869534969329834 0.571077048778533936 0.879750847816467285
0.646074175834655762 0.62904810905456543 0.873826742172241211
0.436613708734512329 0.116440124809741974 0.77162402868270874
0.440144002437591553 0.109441928565502167 0.756522655487060547
0.387914776802062988 0.301713347434997559 0.6451529860496521
0.427538633346557617 0.279460996389389038 0.646429657936096191
0.363313436508178711 0.255706548690795898 0.276979625225067139
0.450818240642547607 0.656625986099243164 0.962296545505523682
0.480908334255218506 0.618983864784240723 0.989826500415802002
0.423120200634002686 0.615617454051971436 0.970931112766265869
0.423146486282348633 0.689541280269622803 0.933993756771087646
0.425219982862472534 0.662569701671600342 0.928534328937530518
0.425829112529754639 0.696394801139831543 0.926140248775482178
0.427277088165283203 0.669662058353424072 0.921716630458831787
0.433893710374832153 0.698577821254730225 0.474875599145889282
0.433397442102432251 0.688378274440765381 0.438459217548370361
0.433384507894515991 0.687033414840698242 0.435172438621520996
0.433592289686203003 0.68489307165145874 0.432158172130584717
0.416833281517028809 0.694634675979614258 0.442392468452453613
0.349344164133071899 0.77907860279083252 0.239702820777893066
0.475735992193222046 0.235888689756393433 0.384821116924285889
0.513495564460754395 0.194133147597312927 0.101213812828063965
0.6714133620262146 0.270225793123245239 0.281765609979629517
0.503974676132202148 0.454743087291717529 0.944756209850311279
0.349555671215057373 0.740688323974609375 0.732841193675994873
0.406772226095199585 0.309418976306915283 0.497196108102798462
0.342987865209579468 0.300994664430618286 0.296356260776519775
0.648552000522613525 0.904857337474822998 0.453704684972763062
0.646673977375030518 0.89889293909072876 0.478955566883087158
0.642681717872619629 0.921642065048217773 0.439375817775726318
0.673308253288269043 0.579532325267791748 0.840466201305389404
0.430938303470611572 0.67683720588684082 0.445297420024871826
0.370837390422821045 0.345826685428619385 0.86011117696762085
0.373737066984176636 0.375247985124588013 0.858182191848754883
0.513498067855834961 0.0816780701279640198 0.250165104866027832
0.529193520545959473 0.0801769569516181946 0.25368008017539978
0.530121803283691406 0.0810733065009117126 0.259219974279403687
0.530737876892089844 0.0805607512593269348 0.26571229100227356
0.620511114597320557 0.241293668746948242 0.524737834930419922
0.644668459892272949 0.225912347435951233 0.52636033296585083
0.408458918333053589 0.22620372474193573 0.866504549980163574
0.460448324680328369 0.63233029842376709 0.683154284954071045
0.527824044227600098 0.0286674574017524719 0.611515283584594727
0.525200366973876953 0.0304243527352809906 0.61964946985244751
0.529132306575775146 0.0224822498857975006 0.603414297103881836
0.52041780948638916 0.0315676964819431305 0.627410471439361572
0.518174588680267334 0.0191610194742679596 0.598894834518432617
0.510528802871704102 0.0162462182343006134 0.605669677257537842
0.497060418128967285 0.0392877571284770966 0.634782910346984863
0.493121206760406494 0.045376114547252655 0.638289332389831543
0.507989048957824707 0.018872678279876709 0.61448979377746582
0.514208614826202393 0.0478531308472156525 0.635740458965301514
0.542198240756988525 0.0145314391702413559 0.438773959875106812
0.550849080085754395 0.0339636541903018951 0.405424714088439941
0.534107625484466553 0.0149794407188892365 0.452242136001586914
0.535783171653747559 0.00536854751408100128 0.455758631229400635
0.604086816310882568 0.416148871183395386 0.693349003791809082
0.627670049667358398 0.291074782609939575 0.866654574871063232
0.591374576091766357 0.705701529979705811 0.250010043382644653
0.659300029277801514 0.739351749420166016 0.636524736881256104
0.465575993061065674 0.125482276082038879 0.666364014148712158
0.527324974536895752 0.246366798877716064 0.0746585801243782043
0.497257709503173828 0.622159183025360107 0.615610480308532715
0.376096159219741821 0.2164946049451828 0.808725178241729736
0.659676551818847656 0.881905734539031982 0.542210876941680908
0.474508166313171387 0.226850256323814392 0.111318796873092651
0.338814526796340942 0.28125464916229248 0.224410340189933777
0.444122076034545898 0.487176775932312012 0.944966912269592285
0.524255275726318359 0.146194994449615479 0.146508514881134033
0.378015726804733276 0.496930480003356934 0.790204226970672607
0.382764488458633423 0.509861230850219727 0.790635347366333008
0.375716835260391235 0.487779617309570312 0.801556587219238281
0.3832244873046875 0.476494520902633667 0.792059719562530518
0.664008975028991699 0.6755257248878479 0.808545768260955811
0.522873520851135254 0.815920472145080566 0.148966610431671143
0.593553364276885986 0.423924535512924194 0.750571250915527344
0.581298708915710449 0.413225829601287842 0.699303746223449707
0.572857916355133057 0.597796916961669922 0.291406512260437012
0.592186927795410156 0.571547150611877441 0.292249560356140137
0.588765323162078857 0.594845712184906006 0.31042143702507019
0.592578709125518799 0.567816972732543945 0.290246933698654175
0.592258453369140625 0.552980422973632812 0.303943544626235962
0.375635772943496704 0.237163543701171875 0.829313695430755615
0.383042365312576294 0.236376658082008362 0.845210909843444824
0.613119304180145264 0.678363800048828125 0.856545150279998779
0.430040210485458374 0.107685528695583344 0.276051759719848633
0.427196413278579712 0.122477635741233826 0.282988548278808594
0.423610985279083252 0.119343392550945282 0.287011384963989258
0.425781607627868652 0.510228753089904785 0.974758684635162354
0.637046873569488525 0.664606094360351562 0.15022827684879303
0.635290741920471191 0.650848031044006348 0.142628923058509827
0.626530885696411133 0.634688138961791992 0.136667504906654358
0.615072667598724365 0.643684744834899902 0.113819949328899384
0.634563624858856201 0.640975058078765869 0.102125503122806549
0.583597838878631592 0.440336912870407104 0.235201641917228699
0.672261536121368408 0.60632777214050293 0.825300395488739014
0.676115930080413818 0.584197044372558594 0.833124995231628418
0.498600393533706665 0.134587377309799194 0.212313592433929443
0.392705440521240234 0.855902373790740967 0.222686111927032471
0.596978604793548584 0.833399116992950439 0.829355597496032715
0.58148193359375 0.07698841392993927 0.367863178253173828
0.540222108364105225 0.0604356452822685242 0.404628604650497437
0.365519255399703979 0.741961061954498291 0.437681257724761963
0.643350839614868164 0.872827827930450439 0.547532856464385986
0.5022696852684021 0.158557236194610596 0.172166913747787476
0.397834122180938721 0.851915240287780762 0.510433495044708252
0.490427941083908081 0.766470015048980713 0.897973179817199707
0.48478052020072937 0.725134909152984619 0.90762251615524292
0.493025660514831543 0.771597862243652344 0.895243346691131592
0.472874313592910767 0.725061237812042236 0.905743956565856934
0.474737435579299927 0.768868982791900635 0.89695364236831665
0.522307515144348145 0.98421400785446167 0.619318962097167969
0.670608401298522949 0.832292675971984863 0.609854578971862793
0.406754374504089355 0.324082314968109131 0.514554262161254883
0.405260175466537476 0.313137024641036987 0.486468881368637085
0.40666884183883667 0.414700418710708618 0.668803393840789795
0.350539892911911011 0.428297102451324463 0.860930383205413818
0.543904721736907959 0.218095719814300537 0.374557316303253174
0.412164986133575439 0.406316787004470825 0.709678888320922852
0.630771160125732422 0.24138130247592926 0.31584399938583374
0.41129031777381897 0.314389884471893311 0.541921615600585938
0.408746838569641113 0.31629982590675354 0.538081109523773193
0.421046137809753418 0.305322885513305664 0.554329872131347656
0.419339895248413086 0.325207948684692383 0.556762814521789551
0.515549004077911377 0.0846402794122695923 0.342171669006347656
0.541307151317596436 0.0744221508502960205 0.332749545574188232
0.528548777103424072 0.0662167370319366455 0.356830030679702759
0.529444277286529541 0.0623911693692207336 0.362984389066696167
0.545904994010925293 0.0748437643051147461 0.355303466320037842
0.625801801681518555 0.342107683420181274 0.65747368335723877
0.462588757276535034 0.759796559810638428 0.499332606792449951
0.667267680168151855 0.262316286563873291 0.222067728638648987
0.640302479267120361 0.863101363182067871 0.559520721435546875
0.425069928169250488 0.320977836847305298 0.576809883117675781
0.547415018081665039 0.321908146142959595 0.59725654125213623
0.3485298752784729 0.177122205495834351 0.326563596725463867
0.358599573373794556 0.200044974684715271 0.311118602752685547
0.647445499897003174 0.697185873985290527 0.20909331738948822
0.467061728239059448 0.955635786056518555 0.512860119342803955
0.380421847105026245 0.0974716395139694214 0.408409953117370605
0.394773334264755249 0.0921369865536689758 0.378718763589859009
0.375576406717300415 0.106796033680438995 0.40101507306098938
0.376857250928878784 0.0961716100573539734 0.389733672142028809
0.372527092695236206 0.105632558465003967 0.416078329086303711
0.379218786954879761 0.12624061107635498 0.443410515785217285
0.336754590272903442 0.14553968608379364 0.480382353067398071
0.496715188026428223 0.427741348743438721 0.338077425956726074
0.432360976934432983 0.419884920120239258 0.178129434585571289
0.540140032768249512 0.473720252513885498 0.299977213144302368
0.522883296012878418 0.432876825332641602 0.277302980422973633
0.523553431034088135 0.434381216764450073 0.273782283067703247
