ply
format ascii 1.0
element vertex 330
property float x
property float y
property float z
end_header
0.576092183589935303 0.241806373000144958 0.700873434543609619
0.548433601856231689 0.518961250782012939 0.896742820739746094
0.356348186731338501 0.543816864490509033 0.265046656131744385
0.588623166084289551 0.56644672155380249 0.796989679336547852
0.502885401248931885 0.513396561145782471 0.941054642200469971
0.547140002250671387 0.377754479646682739 0.387572348117828369
0.511129438877105713 0.717395007610321045 0.126340374350547791
0.490313321352005005 0.382687807083129883 0.270198285579681396
0.536479711532592773 0.25 0.133347570896148682
0.441694319248199463 0.388747096061706543 0.553689897060394287
0.632110238075256348 0.530940115451812744 0.63212883472442627
0.366240948438644409 0.525391519069671631 0.636232316493988037
0.640766501426696777 0.493981868028640747 0.347073674201965332
0.442353785037994385 0.352308511734008789 0.110119834542274475
0.60160750150680542 0.411706656217575073 0.401484072208404541
0.359851866960525513 0.593610823154449463 0.247939348220825195
0.607192814350128174 0.445093214511871338 0.241958066821098328
0.400659710168838501 0.678894996643066406 0.63746875524520874
0.476504534482955933 0.622217416763305664 0.0391601584851741791
0.452962130308151245 0.527495086193084717 0.0403242632746696472
0.467848360538482666 0.400062024593353271 0.724443018436431885
0.550288498401641846 0.454925835132598877 0.0554422587156295776
0.518755137920379639 0.689241111278533936 0.101401627063751221
0.607790470123291016 0.698515713214874268 0.24835146963596344
0.537922382354736328 0.382100313901901245 0.562835395336151123
0.554224967956542969 0.297888964414596558 0.668342769145965576
0.552555561065673828 0.358983993530273438 0.689196288585662842
0.499793887138366699 0.760469496250152588 0.279678463935852051
0.369538486003875732 0.545960366725921631 0.119790337979793549
0.541422009468078613 0.6909828782081604 0.714255571365356445
0.609851479530334473 0.419167578220367432 0.644257783889770508
0.536108732223510742 0.722505807876586914 0.45757630467414856
0.410758554935455322 0.664962649345397949 0.119127124547958374
0.538128495216369629 0.667188584804534912 0.080998249351978302
0.377370327711105347 0.443322509527206421 0.348722368478775024
0.635098695755004883 0.629389703273773193 0.44499167799949646
0.41364404559135437 0.71803361177444458 0.211872071027755737
0.552555501461029053 0.24245724081993103 0.695361196994781494
0.521743595600128174 0.388104617595672607 0.650748312473297119
0.42098119854927063 0.253565818071365356 0.14288957417011261
0.569043636322021484 0.377452850341796875 0.701565742492675781
0.510943889617919922 0.364802449941635132 0.969784796237945557
0.582646191120147705 0.71129375696182251 0.189819216728210449
0.615910768508911133 0.65963667631149292 0.273149847984313965
0.593981742858886719 0.406471699476242065 0.443734645843505859
0.462572157382965088 0.387922614812850952 0.750618398189544678
0.491988897323608398 0.501734554767608643 0.943116307258605957
0.609233200550079346 0.404905319213867188 0.637262821197509766
0.445894598960876465 0.502240300178527832 0.923223376274108887
0.434789806604385376 0.484711050987243652 0.860263288021087646
0.437139391899108887 0.47061002254486084 0.866446375846862793
0.433017492294311523 0.489736199378967285 0.851195573806762695
0.641178667545318604 0.558573722839355469 0.585737705230712891
0.645300745964050293 0.58549046516418457 0.504122018814086914
0.64447629451751709 0.55008244514465332 0.550288498401641846
0.620980739593505859 0.453277111053466797 0.556471467018127441
0.465581268072128296 0.722012042999267578 0.565407931804656982
0.576257109642028809 0.604389786720275879 0.80358576774597168
0.493404805660247803 0.540560543537139893 0.934459567070007324
0.57234114408493042 0.387098371982574463 0.426628291606903076
0.400247484445571899 0.412592917680740356 0.359851866960525513
0.581986665725708008 0.252286702394485474 0.691401422023773193
0.396826237440109253 0.396733105182647705 0.177797809243202209
0.627666771411895752 0.55288541316986084 0.106049135327339172
0.638293266296386719 0.505028843879699707 0.182604983448982239
0.498557299375534058 0.725062191486358643 0.130256608128547668
0.441467463970184326 0.242065519094467163 0.692909657955169678
0.564303338527679443 0.559377431869506836 0.0509078353643417358
0.554389774799346924 0.476238369941711426 0.935490131378173828
0.562448322772979736 0.497238248586654663 0.882933497428894043
0.56471550464630127 0.493961244821548462 0.867888808250427246
0.56203615665435791 0.479039520025253296 0.865724086761474609
0.56203615665435791 0.47061002254486084 0.866858541965484619
0.56636422872543335 0.473598569631576538 0.854080498218536377
0.5661582350730896 0.489736199378967285 0.851195573806762695
0.469558984041213989 0.639488756656646729 0.794693231582641602
0.489488899707794189 0.395445376634597778 0.634789586067199707
0.4432564377784729 0.716471612453460693 0.479328155517578125
0.466817855834960938 0.72683417797088623 0.443528473377227783
0.427823722362518311 0.240100517868995667 0.702287256717681885
0.510923266410827637 0.7278023362159729 0.556265354156494141
0.410346418619155884 0.241963446140289307 0.696598827838897705
0.586640477180480957 0.650016248226165771 0.0882116854190826416
0.589035391807556152 0.64169389009475708 0.0929519757628440857
0.459604382514953613 0.385325819253921509 0.551318943500518799
0.56038743257522583 0.426525264978408813 0.916178584098815918
0.515581190586090088 0.396576046943664551 0.0849106237292289734
0.568837463855743408 0.281266123056411743 0.130049556493759155
0.381080180406570435 0.442662924528121948 0.554410457611083984
0.470362722873687744 0.724607288837432861 0.195200666785240173
0.408491432666778564 0.690993070602416992 0.572547316551208496
0.586356043815612793 0.403029829263687134 0.561005651950836182
0.45877993106842041 0.394002616405487061 0.912200629711151123
0.406018286943435669 0.639900743961334229 0.71619880199432373
0.448565632104873657 0.720518887042999268 0.653792083263397217
0.52081608772277832 0.742704093456268311 0.353309750556945801
0.541632235050201416 0.391364604234695435 0.265869945287704468
0.589653670787811279 0.249979585409164429 0.694764614105224609
0.516075849533081055 0.756492018699645996 0.271228998899459839
0.387077629566192627 0.493861883878707886 0.093477100133895874
0.603825032711029053 0.610929489135742188 0.101827025413513184
0.444146782159805298 0.248177200555801392 0.68881458044052124
0.439612656831741333 0.660531401634216309 0.0894478857517242432
0.434460043907165527 0.309480965137481689 0.970938980579376221
0.518961191177368164 0.709789574146270752 0.73062598705291748
0.50597691535949707 0.45634797215461731 0.957130670547485352
0.448062688112258911 0.745073854923248291 0.258656680583953857
0.448598593473434448 0.62225043773651123 0.795130610466003418
0.643033623695373535 0.555008172988891602 0.248970642685890198
0.455894529819488525 0.350907087326049805 0.63870549201965332
0.499793887138366699 0.616485714912414551 0.873413980007171631
0.410181581974029541 0.721557140350341797 0.245836704969406128
0.37242397665977478 0.460470050573348999 0.450948089361190796
0.574196040630340576 0.328009337186813354 0.969084382057189941
0.447444498538970947 0.285264402627944946 0.12407270073890686
0.638293325901031494 0.617023706436157227 0.314509719610214233
0.450742036104202271 0.381657272577285767 0.269332855939865112
0.574814319610595703 0.640436768531799316 0.826245665550231934
0.381945699453353882 0.615745902061462402 0.651669144630432129
0.585943818092346191 0.375006586313247681 0.207584589719772339
0.555061817169189453 0.42313539981842041 0.0552352070808410645
0.564097225666046143 0.423536747694015503 0.0560604594647884369
0.547815203666687012 0.263665437698364258 0.128607094287872314
0.364592134952545166 0.628936231136322021 0.480214416980743408
0.37242397665977478 0.649340212345123291 0.416735410690307617
0.436108916997909546 0.420974999666213989 0.811746895313262939
0.425020724534988403 0.453888654708862305 0.0519381724298000336
0.3967437744140625 0.397609442472457886 0.636232316493988037
0.61356121301651001 0.513570129871368408 0.0888669192790985107
0.601813554763793945 0.393363744020462036 0.631285905838012695
0.483511984348297119 0.756492018699645996 0.271228998899459839
0.610325396060943604 0.644023001194000244 0.733202695846557617
0.553297519683837891 0.351109057664871216 0.927995562553405762
0.400659650564193726 0.244658157229423523 0.138912305235862732
0.405915200710296631 0.374272614717483521 0.649404525756835938
0.564509332180023193 0.34880492091178894 0.0661595836281776428
0.557914078235626221 0.311583220958709717 0.0758456215262413025
0.583264589309692383 0.324649900197982788 0.0838841274380683899
0.589653551578521729 0.325845271348953247 0.103462286293506622
0.591714620590209961 0.318260878324508667 0.116242222487926483
0.564299166202545166 0.321105062961578369 0.145177915692329407
0.529060065746307373 0.364344865083694458 0.0910665616393089294
0.43301740288734436 0.382461011409759521 0.401071935892105103
0.412819594144821167 0.397032290697097778 0.371805578470230103
0.552761673927307129 0.652802824974060059 0.794517874717712402
0.567394733428955078 0.712097585201263428 0.462901920080184937
0.601401329040527344 0.426426321268081665 0.566714882850646973
0.563272833824157715 0.621310532093048096 0.0589453615248203278
0.536685824394226074 0.399629205465316772 0.775762081146240234
0.399216949939727783 0.412572324275970459 0.443940699100494385
0.411583006381988525 0.40037110447883606 0.443528562784194946
0.570280253887176514 0.429802179336547852 0.0542048923671245575
0.443322509527206421 0.396620184183120728 0.837424218654632568
0.382118880748748779 0.439834058284759521 0.16847480833530426
0.511108756065368652 0.645012021064758301 0.794003844261169434
0.527390718460083008 0.399695158004760742 0.74093782901763916
0.422712475061416626 0.709232151508331299 0.430338054895401001
0.48145100474357605 0.369085133075714111 0.184872657060623169
0.599546372890472412 0.419806480407714844 0.272877305746078491
0.566434383392333984 0.333627611398696899 0.985273897647857666
0.564097106456756592 0.260985612869262695 0.693734169006347656
0.564509332180023193 0.547130107879638672 0.793977081775665283
0.509789705276489258 0.73284989595413208 0.645986557006835938
0.593775570392608643 0.715718626976013184 0.242164283990859985
0.61669391393661499 0.437853097915649414 0.168549597263336182
0.578524112701416016 0.251071631908416748 0.143652796745300293
0.446619957685470581 0.401894271373748779 0.916856884956359863
0.498784005641937256 0.730254650115966797 0.441385120153427124
0.440024882555007935 0.430173218250274658 0.055029161274433136
0.397155910730361938 0.542528033256530762 0.810868740081787109
0.619744241237640381 0.66749197244644165 0.182914257049560547
0.537304162979125977 0.629740059375762939 0.0527624227106571198
0.437551617622375488 0.31622043251991272 0.975267291069030762
0.543074965476989746 0.377720743417739868 0.449299395084381104
0.545754194259643555 0.723557531833648682 0.632522463798522949
0.398392587900161743 0.432481527328491211 0.0978985056281089783
0.440849184989929199 0.381430625915527344 0.426628410816192627
0.610263586044311523 0.395589530467987061 0.627988338470458984
0.586974263191223145 0.243404954671859741 0.695176780223846436
0.512572050094604492 0.619146466255187988 0.882728397846221924
0.459192067384719849 0.737283229827880859 0.374072819948196411
0.47438579797744751 0.747965395450592041 0.334746688604354858
0.487840086221694946 0.521599352359771729 0.940229415893554688
0.579925656318664551 0.409631222486495972 0.234699040651321411
0.576463222503662109 0.399093329906463623 0.293899685144424438
0.453957289457321167 0.291594415903091431 0.670341789722442627
0.506801307201385498 0.662984073162078857 0.0628615617752075195
0.490725487470626831 0.707637190818786621 0.708861649036407471
0.586562097072601318 0.279967427253723145 0.644682347774505615
0.621001541614532471 0.524386405944824219 0.725639224052429199
0.57934868335723877 0.703473329544067383 0.564633071422576904
0.606965959072113037 0.676174581050872803 0.503297567367553711
0.590271890163421631 0.424629181623458862 0.719290316104888916
0.423124611377716064 0.444343090057373047 0.699509322643280029
0.547609269618988037 0.736520171165466309 0.369744539260864258
0.558738529682159424 0.731862366199493408 0.366447150707244873
0.424361199140548706 0.320981323719024658 0.974029958248138428
0.47930753231048584 0.392498224973678589 0.0672835409641265869
0.43796384334564209 0.332316875457763672 0.977327942848205566
0.454864025115966797 0.293487548828125 0.956099331378936768
0.475474148988723755 0.441498488187789917 0.893703997135162354
0.451360404491424561 0.377988636493682861 0.199917376041412354
0.430750280618667603 0.429740488529205322 0.0527624413371086121
0.644888401031494141 0.548833310604095459 0.142004266381263733
0.356760412454605103 0.554328083992004395 0.568013131618499756
0.434872269630432129 0.72291797399520874 0.189613133668899536
0.43446013331413269 0.736190736293792725 0.284418731927871704
0.360057950019836426 0.504039585590362549 0.459192067384719849
0.573000669479370117 0.452018260955810547 0.0527624413371086121
0.488458395004272461 0.69589841365814209 0.103875383734703064
0.535655438899993896 0.360222876071929932 0.118096806108951569
0.543281018733978271 0.574278473854064941 0.0298853069543838501
0.552885293960571289 0.355398029088973999 0.109964065253734589
0.389736384153366089 0.667477071285247803 0.599752545356750488
0.432399094104766846 0.35177275538444519 0.0667777806520462036
0.419826984405517578 0.338211327791213989 0.0737849920988082886
0.409521967172622681 0.357461124658584595 0.128030925989151001
0.414056181907653809 0.363808900117874146 0.0729607194662094116
0.405812203884124756 0.342333406209945679 0.112118951976299286
0.403751164674758911 0.359728127717971802 0.14118000864982605
0.486191272735595703 0.386727362871170044 0.551937222480773926
0.557089805603027344 0.250268280506134033 0.142210334539413452
0.559975206851959229 0.43878820538520813 0.0544109605252742767
0.59422910213470459 0.685974657535552979 0.639092504978179932
0.559975147247314453 0.420960545539855957 0.81103205680847168
0.477329015731811523 0.382522851228713989 0.811005055904388428
0.354287147521972656 0.58549046516418457 0.504122018814086914
0.422465085983276367 0.291235476732254028 0.667602777481079102
0.411170780658721924 0.260882586240768433 0.144271001219749451
0.623866260051727295 0.46092340350151062 0.745424032211303711
0.357996910810470581 0.609439194202423096 0.41714775562286377
0.41941484808921814 0.378916114568710327 0.102844081819057465
0.386129617691040039 0.48487207293510437 0.733309447765350342
0.477943569421768188 0.31606060266494751 0.975537359714508057
0.436933308839797974 0.260738730430603027 0.694146335124969482
0.634583413600921631 0.507048606872558594 0.237634137272834778
0.415086716413497925 0.25104975700378418 0.686842203140258789
0.443528473377227783 0.576195180416107178 0.0502896532416343689
0.491343796253204346 0.744208753108978271 0.182605937123298645
0.491945594549179077 0.370643198490142822 0.958285212516784668
0.547609269618988037 0.397807270288467407 0.827536344528198242
0.518548965454101562 0.495857417583465576 0.0300913732498884201
0.59016883373260498 0.374183595180511475 0.650651037693023682
0.429637342691421509 0.390130102634429932 0.255025923252105713
0.639529943466186523 0.504039585590362549 0.459604412317276001
0.586768269538879395 0.397032290697097778 0.371805578470230103
0.568631410598754883 0.262094378471374512 0.655234813690185547
0.627102017402648926 0.63573753833770752 0.638365983963012695
0.534830927848815918 0.308038592338562012 0.967022716999053955
0.572819292545318604 0.366098672151565552 0.108702562749385834
0.508656203746795654 0.611582756042480469 0.0335954390466213226
0.544499099254608154 0.492028117179870605 0.0514232106506824493
0.510923326015472412 0.544455766677856445 0.0109243728220462799
0.44991767406463623 0.352473467588424683 0.980212867259979248
0.499793887138366699 0.653541028499603271 0.0543200112879276276
0.497732877731323242 0.619332015514373779 0.02844281867146492
0.597279369831085205 0.432873159646987915 0.0991348922252655029
0.443322509527206421 0.248680993914604187 0.143446728587150574
0.483924150466918945 0.375309407711029053 0.454658001661300659
0.562675058841705322 0.732596218585968018 0.276295393705368042
0.582646191120147705 0.245301336050033569 0.148599326610565186
0.554163157939910889 0.251010388135910034 0.691281557083129883
0.384686857461929321 0.682996034622192383 0.265977412462234497
0.507831811904907227 0.399608582258224487 0.633552968502044678
0.562860488891601562 0.248434096574783325 0.142828524112701416
0.534006595611572266 0.451257318258285522 0.89371180534362793
0.555028796195983887 0.40340074896812439 0.732686638832092285
0.596248865127563477 0.693239450454711914 0.429925918579101562
0.468330085277557373 0.578363537788391113 0.877287566661834717
0.428483277559280396 0.379658162593841553 0.702184021472930908
0.584294915199279785 0.716776847839355469 0.343363702297210693
0.60943913459777832 0.69175565242767334 0.21434485912322998
0.508244037628173828 0.744208753108978271 0.182605937123298645
0.403339028358459473 0.693239450454711914 0.429925918579101562
0.41529276967048645 0.716776847839355469 0.343363702297210693
0.449526041746139526 0.690147221088409424 0.714666604995727539
0.491343796253204346 0.601369976997375488 0.0385169349610805511
0.496702402830123901 0.560284316539764404 0.0434875302016735077
0.469167470932006836 0.362442493438720703 0.0826890021562576294
0.369373708963394165 0.649749994277954102 0.202978149056434631
0.375111520290374756 0.655832469463348389 0.534985542297363281
0.438977867364883423 0.544775307178497314 0.886998593807220459
0.397980362176895142 0.242910191416740417 0.696459054946899414
0.492539167404174805 0.457303941249847412 0.960716784000396729
0.443528562784194946 0.398268967866897583 0.707748889923095703
0.454657942056655884 0.377267301082611084 0.450329899787902832
0.450123727321624756 0.375742226839065552 0.382110714912414551
0.63128584623336792 0.50006181001663208 0.628400444984436035
0.48244437575340271 0.494929909706115723 0.0398855209350585938
0.539365112781524658 0.724250674247741699 0.200111821293830872
0.353050529956817627 0.530585348606109619 0.366034775972366333
0.358409225940704346 0.493981868028640747 0.347073674201965332
0.553998231887817383 0.28765454888343811 0.122012048959732056
0.497650444507598877 0.371566563844680786 0.374278873205184937
0.527514398097991943 0.397102326154708862 0.830914974212646484
0.434666216373443604 0.370915055274963379 0.695136189460754395
0.400041401386260986 0.41941484808921814 0.563891053199768066
0.483347117900848389 0.400476306676864624 0.731227993965148926
0.60183417797088623 0.393428027629852295 0.185260161757469177
0.389324098825454712 0.454339385032653809 0.249765694141387939
0.488557308912277222 0.315367132425308228 0.919822990894317627
0.44909331202507019 0.297465682029724121 0.962282299995422363
0.428483188152313232 0.70750194787979126 0.566776454448699951
0.44023093581199646 0.282110631465911865 0.129637420177459717
0.627163887023925781 0.460470050573348999 0.450948089361190796
0.554204285144805908 0.358120530843734741 0.906046509742736816
0.383285403251647949 0.574750423431396484 0.0976630151271820068
0.566364288330078125 0.308718323707580566 0.970114707946777344
0.499793887138366699 0.758944392204284668 0.221145987510681152
0.439200431108474731 0.408594578504562378 0.818837523460388184
0.548103809356689453 0.377287894487380981 0.911185920238494873
0.477741211652755737 0.690127313137054443 0.105111762881278992
0.359233468770980835 0.509918332099914551 0.236743301153182983
0.361294537782669067 0.617023706436157227 0.314509719610214233
0.622011363506317139 0.645774722099304199 0.551112830638885498
0.52993398904800415 0.563301563262939453 0.879241406917572021
0.570377051830291748 0.319821000099182129 0.983016252517700195
0.357502281665802002 0.5182151198387146 0.170230433344841003
0.646537303924560547 0.530585348606109619 0.366034775972366333
0.532151639461517334 0.723370909690856934 0.549257993698120117
0.388046383857727051 0.419072657823562622 0.638505339622497559
0.497320711612701416 0.742910206317901611 0.363330841064453125
0.426257312297821045 0.250690609216690063 0.14348389208316803
0.447691828012466431 0.346791237592697144 0.905712246894836426
0.402390867471694946 0.413211286067962646 0.0634547770023345947
0.393240094184875488 0.404287040233612061 0.113974519073963165
0.391591280698776245 0.399031490087509155 0.132729381322860718
0.622217535972595215 0.443322509527206421 0.349134534597396851
0.409332364797592163 0.626850545406341553 0.111377522349357605
0.373042196035385132 0.467353701591491699 0.577081441879272461
