ply
format ascii 1.0
element vertex 256
property float x
property float y
property float z
end_header
0.611183524131774902 0.582987427711486816 0.107897303998470306
0.375073224306106567 0.815715789794921875 0.839927017688751221
0.681321978569030762 0.173330008983612061 0.118093952536582947
0.421744167804718018 0.881344020366668701 0.944393277168273926
0.529904723167419434 0.609798073768615723 0.226074889302253723
0.635610699653625488 0.582635641098022461 0.755215704441070557
0.406327545642852783 0.853456079959869385 0.878524184226989746
0.495961844921112061 0.421471357345581055 0.108008019626140594
0.503213584423065186 0.43146824836730957 0.667497992515563965
0.654464483261108398 0.342501670122146606 0.623508095741271973
0.700631618499755859 0.571735203266143799 0.168890193104743958
0.493911385536193848 0.467451035976409912 0.142327666282653809
0.662122786045074463 0.201505005359649658 0.5725211501121521
0.473895639181137085 0.372142761945724487 0.0787636041641235352
0.667384564876556396 0.103099144995212555 0.57225877046585083
0.391324639320373535 0.727912485599517822 0.956184506416320801
0.305336624383926392 0.712975263595581055 0.976892828941345215
0.33089977502822876 0.774821221828460693 0.918678879737854004
0.724128007888793945 0.576302111148834229 0.143328547477722168
0.481305330991744995 0.0901489630341529846 0.739534556865692139
0.492941290140151978 0.477455109357833862 0.172153785824775696
0.66236412525177002 0.0881063267588615417 0.614440560340881348
0.680840611457824707 0.593680620193481445 0.505997002124786377
0.490945816040039062 0.439440697431564331 0.110902637243270874
0.675892472267150879 0.41288524866104126 0.22199656069278717
0.677363693714141846 0.167499899864196777 0.134595587849617004
0.470820814371109009 0.507039248943328857 0.156044855713844299
0.679948866367340088 0.154329359531402588 0.132061779499053955
0.643096745014190674 0.34088936448097229 0.616152405738830566
0.479630857706069946 0.190017059445381165 0.680708765983581543
0.324544429779052734 0.769270837306976318 0.965254724025726318
0.48731684684753418 0.162010833621025085 0.685966849327087402
0.680518805980682373 0.163482248783111572 0.123303025960922241
0.677011311054229736 0.122240804135799408 0.150380983948707581
0.667438030242919922 0.0923252403736114502 0.594378232955932617
0.492595762014389038 0.357508689165115356 0.0788312405347824097
0.531617999076843262 0.589043974876403809 0.448387712240219116
0.481239855289459229 0.0938578993082046509 0.0470243915915489197
0.579828500747680664 0.823095023632049561 0.752654552459716797
0.666806697845458984 0.415839880704879761 0.633990764617919922
0.520737290382385254 0.467252284288406372 0.519144654273986816
0.483703702688217163 0.132914900779724121 0.0265297982841730118
0.485593676567077637 0.198415547609329224 0.0264781955629587173
0.673717260360717773 0.627748310565948486 0.359832227230072021
0.413249075412750244 0.74046403169631958 0.851653516292572021
0.692321419715881348 0.260563135147094727 0.14695894718170166
0.515182793140411377 0.69443589448928833 0.260514050722122192
0.682043373584747314 0.629902184009552002 0.655058085918426514
0.626753151416778564 0.360098809003829956 0.603034794330596924
0.548900961875915527 0.692111968994140625 0.73351895809173584
0.486976504325866699 0.833704590797424316 0.943941652774810791
0.67950129508972168 0.318038493394851685 0.178448587656021118
0.480769187211990356 0.657725632190704346 0.176212608814239502
0.672037363052368164 0.201691016554832458 0.120535217225551605
0.472977131605148315 0.283570706844329834 0.0801498293876647949
0.499200940132141113 0.481316238641738892 0.210315734148025513
0.509645938873291016 0.684306800365447998 0.791377842426300049
0.401369720697402954 0.846708476543426514 0.946097195148468018
0.615151524543762207 0.596350550651550293 0.11133623868227005
0.589739859104156494 0.737303733825683594 0.802733719348907471
0.689270496368408203 0.372144639492034912 0.193617075681686401
0.487665832042694092 0.244170695543289185 0.0322371982038021088
0.690472960472106934 0.470317602157592773 0.190145671367645264
0.482080250978469849 0.0924425050616264343 0.716232597827911377
0.655138492584228516 0.142603889107704163 0.591207623481750488
0.53333580493927002 0.503895044326782227 0.438613831996917725
0.486620575189590454 0.235798314213752747 0.0384202040731906891
0.594779670238494873 0.448320329189300537 0.705807745456695557
0.492832183837890625 0.226173624396324158 0.0232683774083852768
0.483459770679473877 0.438053935766220093 0.164305344223976135
0.486704558134078979 0.144431531429290771 0.709114134311676025
0.680746555328369141 0.295498281717300415 0.154002025723457336
0.371119379997253418 0.761139094829559326 0.895877957344055176
0.305365383625030518 0.717458248138427734 0.957063376903533936
0.478400886058807373 0.443408727645874023 0.623008489608764648
0.603677868843078613 0.531956195831298828 0.721084535121917725
0.670840144157409668 0.487283229827880859 0.512975811958312988
0.482229828834533691 0.0992140471935272217 0.722064316272735596
0.618990719318389893 0.468037158250808716 0.188531726598739624
0.502491354942321777 0.511598348617553711 0.541602551937103271
0.680132746696472168 0.120584540069103241 0.14180050790309906
0.409166514873504639 0.900802373886108398 0.875788867473602295
0.489984244108200073 0.188093602657318115 0.0123343868181109428
0.71419978141784668 0.500171780586242676 0.406513124704360962
0.480615347623825073 0.238799870014190674 0.682614445686340332
0.412154942750930786 0.882226526737213135 0.907342195510864258
0.685692787170410156 0.562127947807312012 0.355866909027099609
0.664796769618988037 0.149082854390144348 0.574225068092346191
0.487770259380340576 0.580422282218933105 0.11324688047170639
0.679927051067352295 0.170878291130065918 0.120496757328510284
0.51922374963760376 0.763192594051361084 0.713765621185302734
0.512115240097045898 0.566482245922088623 0.674932539463043213
0.681676924228668213 0.0967241451144218445 0.159564957022666931
0.480120927095413208 0.18656456470489502 0.0368945300579071045
0.454949527978897095 0.678061783313751221 0.588265001773834229
0.680132269859313965 0.0950643941760063171 0.145894810557365417
0.492197871208190918 0.137584611773490906 0.696232140064239502
0.645084857940673828 0.300944685935974121 0.59691774845123291
0.479865372180938721 0.0868545547127723694 0.0303860045969486237
0.664500236511230469 0.0950226634740829468 0.581340789794921875
0.475900113582611084 0.514017581939697266 0.615773320198059082
0.682685792446136475 0.456065773963928223 0.434679180383682251
0.662396848201751709 0.566008150577545166 0.705627799034118652
0.485942453145980835 0.715822696685791016 0.856549322605133057
0.530037820339202881 0.655721306800842285 0.134451642632484436
0.388999193906784058 0.769066929817199707 0.965433299541473389
0.390335500240325928 0.785440802574157715 0.959348976612091064
0.515714466571807861 0.641558945178985596 0.439388632774353027
0.649669229984283447 0.632046282291412354 0.724044263362884521
0.66599428653717041 0.106493920087814331 0.590529084205627441
0.46150738000869751 0.371133297681808472 0.116976991295814514
0.494679868221282959 0.230203807353973389 0.0493468418717384338
0.607682228088378906 0.461222529411315918 0.701313674449920654
0.480792611837387085 0.106340110301971436 0.0251144040375947952
0.466483712196350098 0.397848814725875854 0.1382342129945755
0.390113621950149536 0.818665444850921631 0.89533919095993042
0.51871103048324585 0.422829598188400269 0.634317994117736816
0.613239407539367676 0.4930916428565979 0.149350106716156006
0.497687369585037231 0.618227779865264893 0.161256879568099976
0.658381104469299316 0.344430416822433472 0.640661358833312988
0.48481518030166626 0.413685441017150879 0.118124142289161682
0.450597524642944336 0.433228254318237305 0.147315636277198792
0.491044521331787109 0.721299052238464355 0.659124255180358887
0.617188692092895508 0.677576243877410889 0.584051072597503662
0.678024590015411377 0.479236781597137451 0.666138172149658203
0.668318033218383789 0.355947375297546387 0.167787879705429077
0.497995525598526001 0.853359699249267578 0.836643517017364502
0.480383574962615967 0.17361035943031311 0.670731484889984131
0.487191736698150635 0.174901947379112244 0.0201932471245527267
0.504527091979980469 0.540250122547149658 0.124944776296615601
0.680745184421539307 0.113155283033847809 0.153244480490684509
0.497079759836196899 0.732697248458862305 0.835394144058227539
0.677259862422943115 0.644948482513427734 0.304443627595901489
0.531789183616638184 0.794296741485595703 0.938071727752685547
0.577838540077209473 0.788023412227630615 0.742695331573486328
0.480411320924758911 0.0852853432297706604 0.716275691986083984
0.484385251998901367 0.135306611657142639 0.0432796813547611237
0.665867984294891357 0.195535048842430115 0.140343114733695984
0.493171185255050659 0.495731979608535767 0.195531800389289856
0.491283982992172241 0.739589095115661621 0.760315477848052979
0.668320238590240479 0.598594963550567627 0.605947375297546387
0.482543468475341797 0.111655890941619873 0.721024751663208008
0.69137728214263916 0.636985182762145996 0.463379114866256714
0.554213166236877441 0.408171117305755615 0.587525427341461182
0.500979065895080566 0.857413232326507568 0.890657305717468262
0.680903375148773193 0.0964214354753494263 0.168462023138999939
0.686728537082672119 0.466041415929794312 0.28187638521194458
0.653042733669281006 0.421056926250457764 0.60748821496963501
0.696325421333312988 0.639455974102020264 0.232062101364135742
0.664259493350982666 0.467955857515335083 0.607300043106079102
0.491941511631011963 0.292830288410186768 0.0566719956696033478
0.493787527084350586 0.458339929580688477 0.118091404438018799
0.688190340995788574 0.500962674617767334 0.462989747524261475
0.482926934957504272 0.103203319013118744 0.0537765100598335266
0.667600274085998535 0.285884261131286621 0.170540571212768555
0.409499228000640869 0.830010712146759033 0.949752151966094971
0.323968619108200073 0.750392675399780273 0.925680160522460938
0.479930847883224487 0.0844522044062614441 0.0465024150907993317
0.512621283531188965 0.620371341705322266 0.573357820510864258
0.589486241340637207 0.442578017711639404 0.391306936740875244
0.53577953577041626 0.402918606996536255 0.463466435670852661
0.468297451734542847 0.462830305099487305 0.384324014186859131
0.499710917472839355 0.536609411239624023 0.223411545157432556
0.482299715280532837 0.100633911788463593 0.0325840897858142853
0.536352992057800293 0.629201889038085938 0.738841831684112549
0.490223675966262817 0.215234711766242981 0.0417823903262615204
0.724769473075866699 0.646282613277435303 0.187832176685333252
0.501775383949279785 0.466292321681976318 0.490544945001602173
0.665841281414031982 0.402291357517242432 0.658434271812438965
0.589366257190704346 0.486830532550811768 0.175026297569274902
0.680180132389068604 0.640598833560943604 0.717492341995239258
0.650501012802124023 0.367547363042831421 0.633990764617919922
0.500529050827026367 0.647994756698608398 0.633374392986297607
0.392901360988616943 0.803984940052032471 0.954398691654205322
0.484908074140548706 0.124228902161121368 0.707210779190063477
0.483227968215942383 0.102486632764339447 0.704465985298156738
0.648308336734771729 0.593915164470672607 0.715390980243682861
0.403750389814376831 0.73018038272857666 0.868616402149200439
0.476390987634658813 0.481578052043914795 0.619806826114654541
0.557090342044830322 0.743615329265594482 0.721750736236572266
0.504445254802703857 0.786215305328369141 0.742204427719116211
0.311884462833404541 0.787816703319549561 0.926824271678924561
0.613179028034210205 0.692319214344024658 0.237022116780281067
0.625384926795959473 0.466565579175949097 0.264458298683166504
0.592060685157775879 0.742430746555328369 0.792144179344177246
0.487615972757339478 0.271374106407165527 0.673114538192749023
0.489973872900009155 0.271893739700317383 0.040104500949382782
0.503836572170257568 0.404132187366485596 0.629209756851196289
0.487179547548294067 0.175635010004043579 0.692193746566772461
0.489238649606704712 0.882642149925231934 0.918155252933502197
0.368750035762786865 0.751228570938110352 0.873399853706359863
0.611036241054534912 0.555185675621032715 0.115811213850975037
0.496564865112304688 0.51413428783416748 0.11550634354352951
0.531446874141693115 0.640276849269866943 0.691121995449066162
0.677578926086425781 0.524356245994567871 0.677821636199951172
0.64162135124206543 0.538535833358764648 0.562820374965667725
0.491037100553512573 0.786117136478424072 0.861757099628448486
0.489846497774124146 0.157572194933891296 0.675314843654632568
0.499132782220840454 0.734295666217803955 0.889094710350036621
0.484432518482208252 0.168036922812461853 0.0347721464931964874
0.4833182692527771 0.105464689433574677 0.712039291858673096
0.504745781421661377 0.330075830221176147 0.0567734315991401672
0.688918054103851318 0.482836425304412842 0.324876576662063599
0.611917972564697266 0.644430398941040039 0.129393309354782104
0.615941226482391357 0.678867220878601074 0.186557278037071228
0.383670300245285034 0.768799662590026855 0.873236238956451416
0.544065415859222412 0.406093001365661621 0.605415582656860352
0.48099169135093689 0.088229052722454071 0.726305067539215088
0.480301737785339355 0.0907707661390304565 0.0574339553713798523
0.539039254188537598 0.702556967735290527 0.794290423393249512
0.679805874824523926 0.113113276660442352 0.163189336657524109
0.492440164089202881 0.876790523529052734 0.869673788547515869
0.495393812656402588 0.720684409141540527 0.745021581649780273
0.403286278247833252 0.792113661766052246 0.848980069160461426
0.514458954334259033 0.842418789863586426 0.813916385173797607
0.647664725780487061 0.542735874652862549 0.593382000923156738
0.68113785982131958 0.106547363102436066 0.141839519143104553
0.654575347900390625 0.0905335023999214172 0.161376878619194031
0.521942734718322754 0.649876415729522705 0.302900046110153198
0.477301836013793945 0.412346392869949341 0.148916482925415039
0.566878139972686768 0.81306147575378418 0.823980987071990967
0.620184540748596191 0.691334724426269531 0.283113747835159302
0.616795182228088379 0.398898780345916748 0.476155936717987061
0.523019969463348389 0.622580349445343018 0.379516839981079102
0.479839473962783813 0.630047023296356201 0.3732280433177948
0.509881377220153809 0.86625748872756958 0.805610299110412598
0.488889545202255249 0.245389729738235474 0.0463862344622612
0.484066218137741089 0.115112803876399994 0.0341216549277305603
0.416042298078536987 0.881993234157562256 0.862856209278106689
0.485281527042388916 0.144003540277481079 0.0332915112376213074
0.693759143352508545 0.521336197853088379 0.257574409246444702
0.617276608943939209 0.398328810930252075 0.664729297161102295
0.519654631614685059 0.485292226076126099 0.291659563779830933
0.46590617299079895 0.548396706581115723 0.318642020225524902
0.482982516288757324 0.483369767665863037 0.319513887166976929
0.491292178630828857 0.473764747381210327 0.324125528335571289
0.499618172645568848 0.464116066694259644 0.328769862651824951
0.481335341930389404 0.495980173349380493 0.302493691444396973
0.519801914691925049 0.479352682828903198 0.302534610033035278
0.507128775119781494 0.490553140640258789 0.267403364181518555
0.457077234983444214 0.494703859090805054 0.257481932640075684
0.467524975538253784 0.492402136325836182 0.257089227437973022
0.540203750133514404 0.484114319086074829 0.26010546088218689
0.687481224536895752 0.679757952690124512 0.262944459915161133
0.66646498441696167 0.110170677304267883 0.577492237091064453
0.417639791965484619 0.859425902366638184 0.845154702663421631
0.514904677867889404 0.723745048046112061 0.820642948150634766
0.498591691255569458 0.420563310384750366 0.58339381217956543
0.674661397933959961 0.346044778823852539 0.137557879090309143
0.475837379693984985 0.308176010847091675 0.663095533847808838
0.570115268230438232 0.814804136753082275 0.8059844970703125
0.726675987243652344 0.613710224628448486 0.14269024133682251
0.391306817531585693 0.71949923038482666 0.912315070629119873
0.669632017612457275 0.554584085941314697 0.704291462898254395
0.308957815170288086 0.740957558155059814 0.985870301723480225
0.683300495147705078 0.591016232967376709 0.129706382751464844
