ply
format ascii 1.0
element vertex 856
property float x
property float y
property float z
end_header
0.168448969721794128 0.291666656732559204 0.756107866764068604
0.156536951661109924 0.291666656732559204 0.724586904048919678
0.152566283941268921 0.291666656732559204 0.720646798610687256
0.156536951661109924 0.291666656732559204 0.716706633567810059
0.156536951661109924 0.291666656732559204 0.704886317253112793
0.152566283941268921 0.291666656732559204 0.700946152210235596
0.132712915539741516 0.291666656732559204 0.697006046772003174
0.120800912380218506 0.291666656732559204 0.677305459976196289
0.0969768837094306946 0.291666656732559204 0.519700586795806885
0.0930062085390090942 0.291666656732559204 0.515760481357574463
0.112859569489955902 0.291666656732559204 0.492119759321212769
0.124771580100059509 0.291666656732559204 0.492119759321212769
0.128742247819900513 0.291666656732559204 0.488179624080657959
0.116830237209796906 0.291666656732559204 0.472419142723083496
0.112859569489955902 0.291666656732559204 0.452718555927276611
0.116830237209796906 0.291666656732559204 0.448778420686721802
0.136683598160743713 0.291666656732559204 0.397556841373443604
0.148595601320266724 0.291666656732559204 0.38573649525642395
0.160507619380950928 0.291666656732559204 0.38573649525642395
0.164478287100791931 0.291666656732559204 0.381796360015869141
0.156536951661109924 0.291666656732559204 0.362095773220062256
0.160507619380950928 0.291666656732559204 0.358155637979507446
0.160507619380950928 0.291666656732559204 0.350275397300720215
0.176390305161476135 0.291666656732559204 0.33057481050491333
0.212126344442367554 0.291666656732559204 0.318754434585571289
0.216097012162208557 0.291666656732559204 0.314814299345016479
0.20021432638168335 0.291666656732559204 0.302993953227996826
0.196243658661842346 0.291666656732559204 0.302993953227996826
0.196243658661842346 0.291666656732559204 0.299053817987442017
0.192272990942001343 0.291666656732559204 0.295113712549209595
0.188302323222160339 0.291666656732559204 0.295113712549209595
0.20021432638168335 0.291666656732559204 0.239952012896537781
0.204185009002685547 0.291666656732559204 0.239952012896537781
0.212126344442367554 0.291666656732559204 0.228131651878356934
0.212126344442367554 0.291666656732559204 0.224191531538963318
0.216097012162208557 0.291666656732559204 0.224191531538963318
0.220067679882049561 0.291666656732559204 0.220251411199569702
0.220067679882049561 0.291666656732559204 0.212371170520782471
0.231979697942733765 0.291666656732559204 0.204490929841995239
0.231979697942733765 0.291666656732559204 0.200550809502601624
0.239921048283576965 0.291666656732559204 0.200550809502601624
0.255803734064102173 0.291666656732559204 0.188730433583259583
0.26374506950378418 0.291666656732559204 0.188730433583259583
0.271686404943466187 0.291666656732559204 0.180850192904472351
0.295510441064834595 0.291666656732559204 0.176910072565078735
0.299481123685836792 0.291666656732559204 0.180850192904472351
0.303451776504516602 0.291666656732559204 0.176910072565078735
0.343158483505249023 0.291666656732559204 0.17296995222568512
0.347129166126251221 0.291666656732559204 0.176910072565078735
0.406689226627349854 0.291666656732559204 0.188730433583259583
0.410659909248352051 0.291666656732559204 0.184790313243865967
0.410659909248352051 0.291666656732559204 0.180850192904472351
0.418601244688034058 0.291666656732559204 0.180850192904472351
0.426542580127716064 0.291666656732559204 0.17296995222568512
0.438454598188400269 0.291666656732559204 0.17296995222568512
0.442425280809402466 0.291666656732559204 0.169029831886291504
0.418601244688034058 0.333333343267440796 0.165089711546897888
0.446395933628082275 0.333333343267440796 0.169029831886291504
0.454337269067764282 0.333333343267440796 0.180850192904472351
0.462278634309768677 0.333333343267440796 0.180850192904472351
0.462278634309768677 0.333333343267440796 0.184790313243865967
0.470219969749450684 0.333333343267440796 0.192670553922653198
0.470219969749450684 0.333333343267440796 0.200550809502601624
0.482131987810134888 0.333333343267440796 0.216311290860176086
0.482131987810134888 0.333333343267440796 0.224191531538963318
0.486102640628814697 0.333333343267440796 0.228131651878356934
0.549633383750915527 0.333333343267440796 0.224191531538963318
0.565516054630279541 0.333333343267440796 0.200550809502601624
0.565516054630279541 0.333333343267440796 0.188730433583259583
0.569486737251281738 0.333333343267440796 0.188730433583259583
0.573457419872283936 0.333333343267440796 0.184790313243865967
0.573457419872283936 0.333333343267440796 0.180850192904472351
0.58139878511428833 0.333333343267440796 0.180850192904472351
0.589340090751647949 0.333333343267440796 0.169029831886291504
0.621105492115020752 0.333333343267440796 0.165089711546897888
0.633017480373382568 0.333333343267440796 0.17296995222568512
0.648900151252746582 0.333333343267440796 0.176910072565078735
0.660812199115753174 0.333333343267440796 0.192670553922653198
0.664782822132110596 0.333333343267440796 0.188730433583259583
0.720372259616851807 0.333333343267440796 0.176910072565078735
0.724342942237854004 0.333333343267440796 0.180850192904472351
0.728313565254211426 0.333333343267440796 0.176910072565078735
0.752137601375579834 0.333333343267440796 0.180850192904472351
0.756108283996582031 0.333333343267440796 0.184790313243865967
0.760078966617584229 0.333333343267440796 0.180850192904472351
0.764049649238586426 0.333333343267440796 0.184790313243865967
0.807727038860321045 0.333333343267440796 0.196610689163208008
0.807727038860321045 0.333333343267440796 0.200550809502601624
0.811697661876678467 0.333333343267440796 0.204490929841995239
0.819639027118682861 0.333333343267440796 0.204490929841995239
0.839492380619049072 0.333333343267440796 0.232071772217750549
0.835521697998046875 0.333333343267440796 0.236011892557144165
0.847433745861053467 0.333333343267440796 0.251772373914718628
0.851404368877410889 0.333333343267440796 0.275413095951080322
0.847433745861053467 0.333333343267440796 0.279353231191635132
0.851404368877410889 0.333333343267440796 0.283293336629867554
0.851404368877410889 0.333333343267440796 0.287233471870422363
0.847433745861053467 0.333333343267440796 0.291173577308654785
0.851404368877410889 0.333333343267440796 0.295113712549209595
0.847433745861053467 0.333333343267440796 0.299053817987442017
0.847433745861053467 0.333333343267440796 0.302993953227996826
0.811697661876678467 0.333333343267440796 0.314814299345016479
0.807727038860321045 0.333333343267440796 0.318754434585571289
0.811697661876678467 0.333333343267440796 0.322694540023803711
0.835521697998046875 0.333333343267440796 0.33057481050491333
0.851404368877410889 0.333333343267440796 0.346335291862487793
0.855375051498413086 0.333333343267440796 0.369976013898849487
0.847433745861053467 0.333333343267440796 0.381796360015869141
0.847433745861053467 0.333333343267440796 0.38573649525642395
0.875228404998779297 0.333333343267440796 0.405437082052230835
0.879199087619781494 0.333333343267440796 0.413317352533340454
0.887140452861785889 0.333333343267440796 0.472419142723083496
0.910964488983154297 0.333333343267440796 0.49605986475944519
0.895081758499145508 0.333333343267440796 0.578802406787872314
0.887140452861785889 0.333333343267440796 0.586682677268981934
0.875228404998779297 0.333333343267440796 0.637904226779937744
0.887140452861785889 0.333333343267440796 0.653664708137512207
0.875228404998779297 0.333333343267440796 0.697006046772003174
0.8712577223777771 0.333333343267440796 0.700946152210235596
0.847433745861053467 0.333333343267440796 0.704886317253112793
0.84346306324005127 0.333333343267440796 0.708826422691345215
0.851404368877410889 0.333333343267440796 0.732467114925384521
0.847433745861053467 0.333333343267440796 0.740347385406494141
0.787873625755310059 0.333333343267440796 0.803389310836791992
0.783903002738952637 0.333333343267440796 0.803389310836791992
0.771990954875946045 0.333333343267440796 0.815209686756134033
0.752137601375579834 0.333333343267440796 0.811269581317901611
0.728313565254211426 0.333333343267440796 0.842790544033050537
0.716401576995849609 0.333333343267440796 0.846730649471282959
0.700518906116485596 0.333333343267440796 0.858551025390625
0.652870833873748779 0.333333343267440796 0.870371401309967041
0.644929468631744385 0.333333343267440796 0.866431236267089844
0.633017480373382568 0.333333343267440796 0.854610919952392578
0.625076115131378174 0.333333343267440796 0.854610919952392578
0.621105492115020752 0.333333343267440796 0.858551025390625
0.617134809494018555 0.333333343267440796 0.874311506748199463
0.605222761631011963 0.333333343267440796 0.890071988105773926
0.597281455993652344 0.333333343267440796 0.894012093544006348
0.561545431613922119 0.333333343267440796 0.901892364025115967
0.553604066371917725 0.333333343267440796 0.909772574901580811
0.521838665008544922 0.333333343267440796 0.905832469463348389
0.513897359371185303 0.333333343267440796 0.89795219898223877
0.513897359371185303 0.333333343267440796 0.767928242683410645
0.5178680419921875 0.333333343267440796 0.756107866764068604
0.513897359371185303 0.333333343267440796 0.752167761325836182
0.486102640628814697 0.333333343267440796 0.752167761325836182
0.482131987810134888 0.333333343267440796 0.756107866764068604
0.486102640628814697 0.333333343267440796 0.760047972202301025
0.486102640628814697 0.333333343267440796 0.830970168113708496
0.490073323249816895 0.333333343267440796 0.834910273551940918
0.486102640628814697 0.333333343267440796 0.83885037899017334
0.490073323249816895 0.333333343267440796 0.894012093544006348
0.482131987810134888 0.333333343267440796 0.901892364025115967
0.482131987810134888 0.333333343267440796 0.905832469463348389
0.446395933628082275 0.333333343267440796 0.909772574901580811
0.442425280809402466 0.333333343267440796 0.905832469463348389
0.394777208566665649 0.333333343267440796 0.890071988105773926
0.382865190505981445 0.333333343267440796 0.874311506748199463
0.378894537687301636 0.333333343267440796 0.854610919952392578
0.374923855066299438 0.333333343267440796 0.850670754909515381
0.35109981894493103 0.333333343267440796 0.870371401309967041
0.283598423004150391 0.333333343267440796 0.850670754909515381
0.26374506950378418 0.333333343267440796 0.834910273551940918
0.255803734064102173 0.333333343267440796 0.815209686756134033
0.251833051443099976 0.333333343267440796 0.811269581317901611
0.224038362503051758 0.333333343267440796 0.811269581317901611
0.152566283941268921 0.333333343267440796 0.736407279968261719
0.156536951661109924 0.333333343267440796 0.708826422691345215
0.152566283941268921 0.333333343267440796 0.704886317253112793
0.132712915539741516 0.333333343267440796 0.700946152210235596
0.112859569489955902 0.333333343267440796 0.673365294933319092
0.116830237209796906 0.333333343267440796 0.645784497261047363
0.128742247819900513 0.333333343267440796 0.633964121341705322
0.120800912380218506 0.333333343267440796 0.622143745422363281
0.0969768837094306946 0.333333343267440796 0.543341338634490967
0.0930062085390090942 0.333333343267440796 0.539401233196258545
0.0930062085390090942 0.333333343267440796 0.492119759321212769
0.116830237209796906 0.333333343267440796 0.464538902044296265
0.116830237209796906 0.333333343267440796 0.452718555927276611
0.120800912380218506 0.333333343267440796 0.448778420686721802
0.116830237209796906 0.333333343267440796 0.44483831524848938
0.128742247819900513 0.333333343267440796 0.401496976613998413
0.14462493360042572 0.333333343267440796 0.389676600694656372
0.152566283941268921 0.333333343267440796 0.389676600694656372
0.156536951661109924 0.333333343267440796 0.38573649525642395
0.148595601320266724 0.333333343267440796 0.373916119337081909
0.148595601320266724 0.333333343267440796 0.350275397300720215
0.180360972881317139 0.333333343267440796 0.322694540023803711
0.216097012162208557 0.333333343267440796 0.318754434585571289
0.220067679882049561 0.333333343267440796 0.314814299345016479
0.216097012162208557 0.333333343267440796 0.310874193906784058
0.188302323222160339 0.333333343267440796 0.302993953227996826
0.184331640601158142 0.333333343267440796 0.263592749834060669
0.188302323222160339 0.333333343267440796 0.259652614593505859
0.20815567672252655 0.333333343267440796 0.208431050181388855
0.235950365662574768 0.333333343267440796 0.192670553922653198
0.307422459125518799 0.333333343267440796 0.176910072565078735
0.311393111944198608 0.333333343267440796 0.180850192904472351
0.315363794565200806 0.333333343267440796 0.176910072565078735
0.347129166126251221 0.333333343267440796 0.184790313243865967
0.35109981894493103 0.333333343267440796 0.188730433583259583
0.355070501565933228 0.333333343267440796 0.184790313243865967
0.359041184186935425 0.333333343267440796 0.188730433583259583
0.374923855066299438 0.333333343267440796 0.188730433583259583
0.39080655574798584 0.333333343267440796 0.17296995222568512
0.406689226627349854 0.333333343267440796 0.169029831886291504
0.410659909248352051 0.333333343267440796 0.165089711546897888
0.513897359371185303 0.375 0.070526808500289917
0.5178680419921875 0.375 0.0744669288396835327
0.533750712871551514 0.375 0.0626465678215026855
0.553604066371917725 0.375 0.0626465678215026855
0.553604066371917725 0.375 0.0665866881608963013
0.565516054630279541 0.375 0.0823471695184707642
0.553604066371917725 0.375 0.0941675379872322083
0.557574748992919922 0.375 0.098107658326625824
0.573457419872283936 0.375 0.098107658326625824
0.573457419872283936 0.375 0.117808260023593903
0.569486737251281738 0.375 0.117808260023593903
0.557574748992919922 0.375 0.129628628492355347
0.553604066371917725 0.375 0.180850192904472351
0.557574748992919922 0.375 0.184790313243865967
0.561545431613922119 0.375 0.180850192904472351
0.561545431613922119 0.375 0.176910072565078735
0.573457419872283936 0.375 0.176910072565078735
0.573457419872283936 0.375 0.2714729905128479
0.577428102493286133 0.375 0.275413095951080322
0.593310773372650146 0.375 0.255712509155273438
0.601252138614654541 0.375 0.192670553922653198
0.60919344425201416 0.375 0.184790313243865967
0.60919344425201416 0.375 0.180850192904472351
0.633017480373382568 0.375 0.176910072565078735
0.636988162994384766 0.375 0.180850192904472351
0.640958845615386963 0.375 0.176910072565078735
0.656841516494750977 0.375 0.180850192904472351
0.67272418737411499 0.375 0.196610689163208008
0.716401576995849609 0.375 0.188730433583259583
0.720372259616851807 0.375 0.184790313243865967
0.724342942237854004 0.375 0.188730433583259583
0.728313565254211426 0.375 0.184790313243865967
0.732284247875213623 0.375 0.184790313243865967
0.73625493049621582 0.375 0.188730433583259583
0.740225613117218018 0.375 0.184790313243865967
0.744196295738220215 0.375 0.184790313243865967
0.748166918754577637 0.375 0.188730433583259583
0.752137601375579834 0.375 0.184790313243865967
0.764049649238586426 0.375 0.192670553922653198
0.768020272254943848 0.375 0.188730433583259583
0.779932320117950439 0.375 0.196610689163208008
0.803756356239318848 0.375 0.204490929841995239
0.811697661876678467 0.375 0.216311290860176086
0.819639027118682861 0.375 0.216311290860176086
0.819639027118682861 0.375 0.220251411199569702
0.827580392360687256 0.375 0.228131651878356934
0.823609709739685059 0.375 0.232071772217750549
0.831551015377044678 0.375 0.243892133235931396
0.835521697998046875 0.375 0.279353231191635132
0.839492380619049072 0.375 0.283293336629867554
0.831551015377044678 0.375 0.291173577308654785
0.831551015377044678 0.375 0.295113712549209595
0.764049649238586426 0.375 0.318754434585571289
0.760078966617584229 0.375 0.322694540023803711
0.764049649238586426 0.375 0.326634675264358521
0.831551015377044678 0.375 0.342395156621932983
0.839492380619049072 0.375 0.350275397300720215
0.84346306324005127 0.375 0.350275397300720215
0.847433745861053467 0.375 0.369976013898849487
0.84346306324005127 0.375 0.373916119337081909
0.84346306324005127 0.375 0.38573649525642395
0.8712577223777771 0.375 0.405437082052230835
0.875228404998779297 0.375 0.413317352533340454
0.883169770240783691 0.375 0.44089818000793457
0.879199087619781494 0.375 0.44483831524848938
0.875228404998779297 0.375 0.464538902044296265
0.895081758499145508 0.375 0.480299383401870728
0.899052441120147705 0.375 0.488179624080657959
0.899052441120147705 0.375 0.49605986475944519
0.910964488983154297 0.375 0.511820375919342041
0.9069938063621521 0.375 0.547281444072723389
0.891111075878143311 0.375 0.563041925430297852
0.891111075878143311 0.375 0.566982030868530273
0.819639027118682861 0.375 0.574862301349639893
0.815668344497680664 0.375 0.578802406787872314
0.879199087619781494 0.375 0.626083850860595703
0.883169770240783691 0.375 0.626083850860595703
0.887140452861785889 0.375 0.665485084056854248
0.883169770240783691 0.375 0.673365294933319092
0.8712577223777771 0.375 0.685185670852661133
0.86331641674041748 0.375 0.724586904048919678
0.819639027118682861 0.375 0.775808453559875488
0.815668344497680664 0.375 0.775808453559875488
0.783903002738952637 0.375 0.803389310836791992
0.756108283996582031 0.375 0.803389310836791992
0.740225613117218018 0.375 0.823089897632598877
0.740225613117218018 0.375 0.827030062675476074
0.708460211753845215 0.375 0.834910273551940918
0.696548223495483398 0.375 0.846730649471282959
0.67272418737411499 0.375 0.846730649471282959
0.640958845615386963 0.375 0.874311506748199463
0.640958845615386963 0.375 0.878251612186431885
0.613164126873016357 0.375 0.89795219898223877
0.553604066371917725 0.375 0.91765284538269043
0.549633383750915527 0.375 0.921592950820922852
0.54566270112991333 0.375 0.91765284538269043
0.533750712871551514 0.375 0.91765284538269043
0.521838665008544922 0.375 0.905832469463348389
0.521838665008544922 0.375 0.834910273551940918
0.5178680419921875 0.375 0.830970168113708496
0.486102640628814697 0.375 0.830970168113708496
0.482131987810134888 0.375 0.834910273551940918
0.47816130518913269 0.375 0.909772574901580811
0.470219969749450684 0.375 0.91765284538269043
0.386835873126983643 0.375 0.89795219898223877
0.355070501565933228 0.375 0.878251612186431885
0.35109981894493103 0.375 0.878251612186431885
0.35109981894493103 0.375 0.862491130828857422
0.32727581262588501 0.375 0.846730649471282959
0.267715752124786377 0.375 0.830970168113708496
0.243891716003417969 0.375 0.803389310836791992
0.216097012162208557 0.375 0.803389310836791992
0.20021432638168335 0.375 0.783688724040985107
0.188302323222160339 0.375 0.779748618602752686
0.156536951661109924 0.375 0.752167761325836182
0.156536951661109924 0.375 0.748227596282958984
0.128742247819900513 0.375 0.704886317253112793
0.128742247819900513 0.375 0.685185670852661133
0.116830237209796906 0.375 0.66942518949508667
0.116830237209796906 0.375 0.6300240159034729
0.184331640601158142 0.375 0.578802406787872314
0.180360972881317139 0.375 0.574862301349639893
0.108888894319534302 0.375 0.566982030868530273
0.108888894319534302 0.375 0.563041925430297852
0.0930062085390090942 0.375 0.543341338634490967
0.0890355408191680908 0.375 0.519700586795806885
0.0930062085390090942 0.375 0.515760481357574463
0.0930062085390090942 0.375 0.507880270481109619
0.104918226599693298 0.375 0.492119759321212769
0.104918226599693298 0.375 0.484239518642425537
0.124771580100059509 0.375 0.468479037284851074
0.120800912380218506 0.375 0.429077833890914917
0.124771580100059509 0.375 0.425137698650360107
0.132712915539741516 0.375 0.401496976613998413
0.136683598160743713 0.375 0.401496976613998413
0.14462493360042572 0.375 0.393616735935211182
0.152566283941268921 0.375 0.393616735935211182
0.160507619380950928 0.375 0.38573649525642395
0.156536951661109924 0.375 0.350275397300720215
0.271686404943466187 0.375 0.326634675264358521
0.275657087564468384 0.375 0.322694540023803711
0.271686404943466187 0.375 0.318754434585571289
0.220067679882049561 0.375 0.302993953227996826
0.212126344442367554 0.375 0.295113712549209595
0.204185009002685547 0.375 0.295113712549209595
0.204185009002685547 0.375 0.291173577308654785
0.196243658661842346 0.375 0.283293336629867554
0.20021432638168335 0.375 0.279353231191635132
0.204185009002685547 0.375 0.243892133235931396
0.20815567672252655 0.375 0.239952012896537781
0.204185009002685547 0.375 0.236011892557144165
0.20815567672252655 0.375 0.236011892557144165
0.212126344442367554 0.375 0.232071772217750549
0.20815567672252655 0.375 0.228131651878356934
0.220067679882049561 0.375 0.212371170520782471
0.224038362503051758 0.375 0.212371170520782471
0.235950365662574768 0.375 0.200550809502601624
0.279627740383148193 0.375 0.188730433583259583
0.283598423004150391 0.375 0.184790313243865967
0.287569105625152588 0.375 0.188730433583259583
0.291539758443832397 0.375 0.184790313243865967
0.295510441064834595 0.375 0.184790313243865967
0.299481123685836792 0.375 0.188730433583259583
0.303451776504516602 0.375 0.184790313243865967
0.363011837005615234 0.375 0.196610689163208008
0.378894537687301636 0.375 0.180850192904472351
0.394777208566665649 0.375 0.176910072565078735
0.398747891187667847 0.375 0.180850192904472351
0.402718544006347656 0.375 0.176910072565078735
0.422571927309036255 0.375 0.180850192904472351
0.438454598188400269 0.375 0.200550809502601624
0.442425280809402466 0.375 0.255712509155273438
0.454337269067764282 0.375 0.267532855272293091
0.454337269067764282 0.375 0.275413095951080322
0.458307951688766479 0.375 0.279353231191635132
0.462278634309768677 0.375 0.275413095951080322
0.462278634309768677 0.375 0.176910072565078735
0.470219969749450684 0.375 0.176910072565078735
0.474190652370452881 0.375 0.180850192904472351
0.47816130518913269 0.375 0.176910072565078735
0.47816130518913269 0.375 0.133568748831748962
0.462278634309768677 0.375 0.117808260023593903
0.462278634309768677 0.375 0.098107658326625824
0.47816130518913269 0.375 0.098107658326625824
0.482131987810134888 0.375 0.0941675379872322083
0.470219969749450684 0.375 0.0823471695184707642
0.482131987810134888 0.375 0.0665866881608963013
0.482131987810134888 0.375 0.0626465678215026855
0.5178680419921875 0.458333343267440796 0.192670553922653198
0.533750712871551514 0.458333343267440796 0.180850192904472351
0.537721395492553711 0.458333343267440796 0.180850192904472351
0.561545431613922119 0.458333343267440796 0.196610689163208008
0.565516054630279541 0.458333343267440796 0.196610689163208008
0.58139878511428833 0.458333343267440796 0.180850192904472351
0.573457419872283936 0.458333343267440796 0.212371170520782471
0.565516054630279541 0.458333343267440796 0.220251411199569702
0.565516054630279541 0.458333343267440796 0.228131651878356934
0.613164126873016357 0.458333343267440796 0.263592749834060669
0.617134809494018555 0.458333343267440796 0.263592749834060669
0.617134809494018555 0.458333343267440796 0.2714729905128479
0.629046797752380371 0.458333343267440796 0.283293336629867554
0.640958845615386963 0.458333343267440796 0.283293336629867554
0.644929468631744385 0.458333343267440796 0.306934058666229248
0.648900151252746582 0.458333343267440796 0.310874193906784058
0.680665552616119385 0.458333343267440796 0.283293336629867554
0.728313565254211426 0.458333343267440796 0.275413095951080322
0.740225613117218018 0.458333343267440796 0.287233471870422363
0.73625493049621582 0.458333343267440796 0.287233471870422363
0.732284247875213623 0.458333343267440796 0.291173577308654785
0.73625493049621582 0.458333343267440796 0.295113712549209595
0.732284247875213623 0.458333343267440796 0.299053817987442017
0.724342942237854004 0.458333343267440796 0.299053817987442017
0.720372259616851807 0.458333343267440796 0.302993953227996826
0.724342942237854004 0.458333343267440796 0.306934058666229248
0.700518906116485596 0.458333343267440796 0.326634675264358521
0.704489588737487793 0.458333343267440796 0.33057481050491333
0.740225613117218018 0.458333343267440796 0.33057481050491333
0.740225613117218018 0.458333343267440796 0.350275397300720215
0.752137601375579834 0.458333343267440796 0.362095773220062256
0.791844308376312256 0.458333343267440796 0.33057481050491333
0.831551015377044678 0.458333343267440796 0.33057481050491333
0.839492380619049072 0.458333343267440796 0.342395156621932983
0.84346306324005127 0.458333343267440796 0.342395156621932983
0.855375051498413086 0.458333343267440796 0.354215532541275024
0.851404368877410889 0.458333343267440796 0.389676600694656372
0.86331641674041748 0.458333343267440796 0.397556841373443604
0.8712577223777771 0.458333343267440796 0.397556841373443604
0.891111075878143311 0.458333343267440796 0.429077833890914917
0.875228404998779297 0.458333343267440796 0.472419142723083496
0.9069938063621521 0.458333343267440796 0.492119759321212769
0.910964488983154297 0.458333343267440796 0.519700586795806885
0.9069938063621521 0.458333343267440796 0.523640751838684082
0.910964488983154297 0.458333343267440796 0.563041925430297852
0.9069938063621521 0.458333343267440796 0.566982030868530273
0.9069938063621521 0.458333343267440796 0.574862301349639893
0.791844308376312256 0.458333343267440796 0.586682677268981934
0.787873625755310059 0.458333343267440796 0.590622782707214355
0.791844308376312256 0.458333343267440796 0.594562888145446777
0.883169770240783691 0.458333343267440796 0.6300240159034729
0.887140452861785889 0.458333343267440796 0.633964121341705322
0.883169770240783691 0.458333343267440796 0.637904226779937744
0.855375051498413086 0.458333343267440796 0.720646798610687256
0.847433745861053467 0.458333343267440796 0.7285270094871521
0.847433745861053467 0.458333343267440796 0.732467114925384521
0.84346306324005127 0.458333343267440796 0.732467114925384521
0.827580392360687256 0.458333343267440796 0.744287490844726562
0.807727038860321045 0.458333343267440796 0.744287490844726562
0.803756356239318848 0.458333343267440796 0.748227596282958984
0.807727038860321045 0.458333343267440796 0.763988137245178223
0.795814990997314453 0.458333343267440796 0.783688724040985107
0.791844308376312256 0.458333343267440796 0.783688724040985107
0.756108283996582031 0.458333343267440796 0.815209686756134033
0.748166918754577637 0.458333343267440796 0.815209686756134033
0.744196295738220215 0.458333343267440796 0.819149792194366455
0.744196295738220215 0.458333343267440796 0.823089897632598877
0.740225613117218018 0.458333343267440796 0.823089897632598877
0.700518906116485596 0.458333343267440796 0.850670754909515381
0.684636235237121582 0.458333343267440796 0.854610919952392578
0.67272418737411499 0.458333343267440796 0.874311506748199463
0.668753504753112793 0.458333343267440796 0.874311506748199463
0.633017480373382568 0.458333343267440796 0.89795219898223877
0.601252138614654541 0.458333343267440796 0.905832469463348389
0.593310773372650146 0.458333343267440796 0.901892364025115967
0.573457419872283936 0.458333343267440796 0.882191717624664307
0.569486737251281738 0.458333343267440796 0.886131882667541504
0.561545431613922119 0.458333343267440796 0.925533056259155273
0.553604066371917725 0.458333343267440796 0.933413326740264893
0.525809347629547119 0.458333343267440796 0.933413326740264893
0.5178680419921875 0.458333343267440796 0.921592950820922852
0.5178680419921875 0.458333343267440796 0.886131882667541504
0.509926676750183105 0.458333343267440796 0.878251612186431885
0.5178680419921875 0.458333343267440796 0.752167761325836182
0.513897359371185303 0.458333343267440796 0.748227596282958984
0.513897359371185303 0.458333343267440796 0.720646798610687256
0.5178680419921875 0.458333343267440796 0.716706633567810059
0.505955994129180908 0.458333343267440796 0.708826422691345215
0.490073323249816895 0.458333343267440796 0.712766528129577637
0.486102640628814697 0.458333343267440796 0.716706633567810059
0.482131987810134888 0.458333343267440796 0.756107866764068604
0.486102640628814697 0.458333343267440796 0.760047972202301025
0.494044005870819092 0.458333343267440796 0.870371401309967041
0.486102640628814697 0.458333343267440796 0.882191717624664307
0.482131987810134888 0.458333343267440796 0.925533056259155273
0.474190652370452881 0.458333343267440796 0.933413326740264893
0.450366616249084473 0.458333343267440796 0.933413326740264893
0.438454598188400269 0.458333343267440796 0.921592950820922852
0.434483915567398071 0.458333343267440796 0.886131882667541504
0.430513262748718262 0.458333343267440796 0.882191717624664307
0.426542580127716064 0.458333343267440796 0.882191717624664307
0.402718544006347656 0.458333343267440796 0.905832469463348389
0.343158483505249023 0.458333343267440796 0.886131882667541504
0.32727581262588501 0.458333343267440796 0.870371401309967041
0.323305130004882812 0.458333343267440796 0.870371401309967041
0.323305130004882812 0.458333343267440796 0.862491130828857422
0.307422459125518799 0.458333343267440796 0.850670754909515381
0.299481123685836792 0.458333343267440796 0.850670754909515381
0.26374506950378418 0.458333343267440796 0.827030062675476074
0.26374506950378418 0.458333343267440796 0.823089897632598877
0.196243658661842346 0.458333343267440796 0.771868348121643066
0.192272990942001343 0.458333343267440796 0.763988137245178223
0.196243658661842346 0.458333343267440796 0.748227596282958984
0.192272990942001343 0.458333343267440796 0.744287490844726562
0.164478287100791931 0.458333343267440796 0.740347385406494141
0.124771580100059509 0.458333343267440796 0.677305459976196289
0.116830237209796906 0.458333343267440796 0.6300240159034729
0.172419637441635132 0.458333343267440796 0.606383264064788818
0.180360972881317139 0.458333343267440796 0.598503053188323975
0.216097012162208557 0.458333343267440796 0.594562888145446777
0.220067679882049561 0.458333343267440796 0.590622782707214355
0.216097012162208557 0.458333343267440796 0.586682677268981934
0.0969768837094306946 0.458333343267440796 0.574862301349639893
0.0930062085390090942 0.458333343267440796 0.551221549510955811
0.0890355408191680908 0.458333343267440796 0.547281444072723389
0.0930062085390090942 0.458333343267440796 0.543341338634490967
0.0969768837094306946 0.458333343267440796 0.523640751838684082
0.0890355408191680908 0.458333343267440796 0.511820375919342041
0.0930062085390090942 0.458333343267440796 0.49605986475944519
0.124771580100059509 0.458333343267440796 0.472419142723083496
0.120800912380218506 0.458333343267440796 0.456658661365509033
0.112859569489955902 0.458333343267440796 0.448778420686721802
0.120800912380218506 0.458333343267440796 0.409377217292785645
0.140654265880584717 0.458333343267440796 0.393616735935211182
0.148595601320266724 0.458333343267440796 0.393616735935211182
0.152566283941268921 0.458333343267440796 0.389676600694656372
0.148595601320266724 0.458333343267440796 0.38573649525642395
0.14462493360042572 0.458333343267440796 0.358155637979507446
0.148595601320266724 0.458333343267440796 0.354215532541275024
0.148595601320266724 0.458333343267440796 0.350275397300720215
0.152566283941268921 0.458333343267440796 0.350275397300720215
0.168448969721794128 0.458333343267440796 0.334514915943145752
0.168448969721794128 0.458333343267440796 0.33057481050491333
0.224038362503051758 0.458333343267440796 0.338455051183700562
0.247862383723258972 0.458333343267440796 0.362095773220062256
0.259774386882781982 0.458333343267440796 0.350275397300720215
0.279627740383148193 0.458333343267440796 0.346335291862487793
0.287569105625152588 0.458333343267440796 0.350275397300720215
0.291539758443832397 0.458333343267440796 0.354215532541275024
0.295510441064834595 0.458333343267440796 0.350275397300720215
0.295510441064834595 0.458333343267440796 0.33057481050491333
0.331246465444564819 0.458333343267440796 0.33057481050491333
0.335217148065567017 0.458333343267440796 0.326634675264358521
0.311393111944198608 0.458333343267440796 0.306934058666229248
0.311393111944198608 0.458333343267440796 0.302993953227996826
0.299481123685836792 0.458333343267440796 0.295113712549209595
0.299481123685836792 0.458333343267440796 0.291173577308654785
0.295510441064834595 0.458333343267440796 0.287233471870422363
0.299481123685836792 0.458333343267440796 0.283293336629867554
0.299481123685836792 0.458333343267440796 0.279353231191635132
0.323305130004882812 0.458333343267440796 0.275413095951080322
0.32727581262588501 0.458333343267440796 0.279353231191635132
0.355070501565933228 0.458333343267440796 0.283293336629867554
0.386835873126983643 0.458333343267440796 0.310874193906784058
0.39080655574798584 0.458333343267440796 0.306934058666229248
0.394777208566665649 0.458333343267440796 0.283293336629867554
0.402718544006347656 0.458333343267440796 0.275413095951080322
0.41463056206703186 0.458333343267440796 0.275413095951080322
0.418601244688034058 0.458333343267440796 0.2714729905128479
0.418601244688034058 0.458333343267440796 0.263592749834060669
0.422571927309036255 0.458333343267440796 0.263592749834060669
0.454337269067764282 0.458333343267440796 0.239952012896537781
0.462278634309768677 0.458333343267440796 0.239952012896537781
0.470219969749450684 0.458333343267440796 0.232071772217750549
0.470219969749450684 0.458333343267440796 0.220251411199569702
0.458307951688766479 0.458333343267440796 0.208431050181388855
0.454337269067764282 0.458333343267440796 0.184790313243865967
0.458307951688766479 0.458333343267440796 0.184790313243865967
0.458307951688766479 0.458333343267440796 0.188730433583259583
0.466249287128448486 0.458333343267440796 0.196610689163208008
0.474190652370452881 0.458333343267440796 0.196610689163208008
0.498014658689498901 0.458333343267440796 0.180850192904472351
0.513897359371185303 0.5 0.243892133235931396
0.5178680419921875 0.5 0.247832253575325012
0.529780030250549316 0.5 0.239952012896537781
0.541692018508911133 0.5 0.243892133235931396
0.54566270112991333 0.5 0.239952012896537781
0.549633383750915527 0.5 0.243892133235931396
0.565516054630279541 0.5 0.247832253575325012
0.58139878511428833 0.5 0.259652614593505859
0.58139878511428833 0.5 0.263592749834060669
0.605222761631011963 0.5 0.295113712549209595
0.617134809494018555 0.5 0.295113712549209595
0.625076115131378174 0.5 0.302993953227996826
0.625076115131378174 0.5 0.314814299345016479
0.605222761631011963 0.5 0.326634675264358521
0.60919344425201416 0.5 0.33057481050491333
0.625076115131378174 0.5 0.33057481050491333
0.625076115131378174 0.5 0.377856254577636719
0.629046797752380371 0.5 0.381796360015869141
0.640958845615386963 0.5 0.377856254577636719
0.644929468631744385 0.5 0.373916119337081909
0.648900151252746582 0.5 0.377856254577636719
0.660812199115753174 0.5 0.377856254577636719
0.668753504753112793 0.5 0.38573649525642395
0.67272418737411499 0.5 0.38573649525642395
0.676694869995117188 0.5 0.381796360015869141
0.676694869995117188 0.5 0.369976013898849487
0.696548223495483398 0.5 0.354215532541275024
0.716401576995849609 0.5 0.358155637979507446
0.720372259616851807 0.5 0.354215532541275024
0.744196295738220215 0.5 0.358155637979507446
0.752137601375579834 0.5 0.366035878658294678
0.760078966617584229 0.5 0.354215532541275024
0.764049649238586426 0.5 0.354215532541275024
0.779932320117950439 0.5 0.334514915943145752
0.787873625755310059 0.5 0.33057481050491333
0.831551015377044678 0.5 0.334514915943145752
0.847433745861053467 0.5 0.354215532541275024
0.84346306324005127 0.5 0.358155637979507446
0.839492380619049072 0.5 0.373916119337081909
0.84346306324005127 0.5 0.377856254577636719
0.859345734119415283 0.5 0.377856254577636719
0.883169770240783691 0.5 0.413317352533340454
0.883169770240783691 0.5 0.44483831524848938
0.86331641674041748 0.5 0.468479037284851074
0.8712577223777771 0.5 0.476359277963638306
0.883169770240783691 0.5 0.476359277963638306
0.899052441120147705 0.5 0.488179624080657959
0.910964488983154297 0.5 0.531520962715148926
0.9069938063621521 0.5 0.535461068153381348
0.903023123741149902 0.5 0.566982030868530273
0.795814990997314453 0.5 0.570922195911407471
0.791844308376312256 0.5 0.574862301349639893
0.795814990997314453 0.5 0.578802406787872314
0.859345734119415283 0.5 0.590622782707214355
0.867287099361419678 0.5 0.598503053188323975
0.8712577223777771 0.5 0.598503053188323975
0.8712577223777771 0.5 0.602443158626556396
0.887140452861785889 0.5 0.622143745422363281
0.86331641674041748 0.5 0.697006046772003174
0.803756356239318848 0.5 0.763988137245178223
0.79978567361831665 0.5 0.763988137245178223
0.771990954875946045 0.5 0.787628829479217529
0.768020272254943848 0.5 0.787628829479217529
0.764049649238586426 0.5 0.783688724040985107
0.760078966617584229 0.5 0.787628829479217529
0.740225613117218018 0.5 0.791568934917449951
0.73625493049621582 0.5 0.787628829479217529
0.728313565254211426 0.5 0.79944920539855957
0.724342942237854004 0.5 0.815209686756134033
0.716401576995849609 0.5 0.815209686756134033
0.704489588737487793 0.5 0.827030062675476074
0.700518906116485596 0.5 0.842790544033050537
0.625076115131378174 0.5 0.894012093544006348
0.617134809494018555 0.5 0.89795219898223877
0.593310773372650146 0.5 0.905832469463348389
0.577428102493286133 0.5 0.890071988105773926
0.573457419872283936 0.5 0.890071988105773926
0.569486737251281738 0.5 0.894012093544006348
0.565516054630279541 0.5 0.91765284538269043
0.569486737251281738 0.5 0.921592950820922852
0.569486737251281738 0.5 0.933413326740264893
0.54566270112991333 0.5 0.937353432178497314
0.537721395492553711 0.5 0.929473161697387695
0.509926676750183105 0.5 0.925533056259155273
0.505955994129180908 0.5 0.921592950820922852
0.5178680419921875 0.5 0.752167761325836182
0.513897359371185303 0.5 0.748227596282958984
0.513897359371185303 0.5 0.720646798610687256
0.509926676750183105 0.5 0.716706633567810059
0.490073323249816895 0.5 0.716706633567810059
0.486102640628814697 0.5 0.720646798610687256
0.482131987810134888 0.5 0.756107866764068604
0.486102640628814697 0.5 0.760047972202301025
0.494044005870819092 0.5 0.925533056259155273
0.462278634309768677 0.5 0.929473161697387695
0.454337269067764282 0.5 0.937353432178497314
0.430513262748718262 0.5 0.933413326740264893
0.434483915567398071 0.5 0.909772574901580811
0.430513262748718262 0.5 0.905832469463348389
0.430513262748718262 0.5 0.890071988105773926
0.426542580127716064 0.5 0.886131882667541504
0.406689226627349854 0.5 0.905832469463348389
0.402718544006347656 0.5 0.901892364025115967
0.374923855066299438 0.5 0.894012093544006348
0.319334477186203003 0.5 0.858551025390625
0.315363794565200806 0.5 0.858551025390625
0.315363794565200806 0.5 0.854610919952392578
0.299481123685836792 0.5 0.83885037899017334
0.299481123685836792 0.5 0.830970168113708496
0.287569105625152588 0.5 0.819149792194366455
0.279627740383148193 0.5 0.819149792194366455
0.275657087564468384 0.5 0.815209686756134033
0.271686404943466187 0.5 0.795509099960327148
0.26374506950378418 0.5 0.787628829479217529
0.251833051443099976 0.5 0.791568934917449951
0.247862383723258972 0.5 0.787628829479217529
0.224038362503051758 0.5 0.783688724040985107
0.152566283941268921 0.5 0.716706633567810059
0.14462493360042572 0.5 0.697006046772003174
0.128742247819900513 0.5 0.677305459976196289
0.116830237209796906 0.5 0.626083850860595703
0.112859569489955902 0.5 0.622143745422363281
0.136683598160743713 0.5 0.594562888145446777
0.140654265880584717 0.5 0.594562888145446777
0.164478287100791931 0.5 0.578802406787872314
0.20815567672252655 0.5 0.578802406787872314
0.212126344442367554 0.5 0.574862301349639893
0.20815567672252655 0.5 0.570922195911407471
0.0969768837094306946 0.5 0.566982030868530273
0.0930062085390090942 0.5 0.515760481357574463
0.0969768837094306946 0.5 0.511820375919342041
0.104918226599693298 0.5 0.484239518642425537
0.116830237209796906 0.5 0.476359277963638306
0.136683598160743713 0.5 0.472419142723083496
0.140654265880584717 0.5 0.468479037284851074
0.116830237209796906 0.5 0.44483831524848938
0.128742247819900513 0.5 0.389676600694656372
0.140654265880584717 0.5 0.377856254577636719
0.156536951661109924 0.5 0.377856254577636719
0.160507619380950928 0.5 0.373916119337081909
0.156536951661109924 0.5 0.354215532541275024
0.160507619380950928 0.5 0.350275397300720215
0.160507619380950928 0.5 0.342395156621932983
0.212126344442367554 0.5 0.33057481050491333
0.220067679882049561 0.5 0.334514915943145752
0.235950365662574768 0.5 0.354215532541275024
0.239921048283576965 0.5 0.354215532541275024
0.247862383723258972 0.5 0.362095773220062256
0.283598423004150391 0.5 0.354215532541275024
0.287569105625152588 0.5 0.358155637979507446
0.307422459125518799 0.5 0.354215532541275024
0.315363794565200806 0.5 0.362095773220062256
0.319334477186203003 0.5 0.362095773220062256
0.323305130004882812 0.5 0.381796360015869141
0.32727581262588501 0.5 0.38573649525642395
0.35109981894493103 0.5 0.377856254577636719
0.355070501565933228 0.5 0.373916119337081909
0.359041184186935425 0.5 0.377856254577636719
0.386835873126983643 0.5 0.38573649525642395
0.406689226627349854 0.5 0.401496976613998413
0.410659909248352051 0.5 0.397556841373443604
0.410659909248352051 0.5 0.342395156621932983
0.41463056206703186 0.5 0.346335291862487793
0.426542580127716064 0.5 0.393616735935211182
0.430513262748718262 0.5 0.397556841373443604
0.434483915567398071 0.5 0.397556841373443604
0.438454598188400269 0.5 0.393616735935211182
0.430513262748718262 0.5 0.326634675264358521
0.426542580127716064 0.5 0.322694540023803711
0.418601244688034058 0.5 0.322694540023803711
0.410659909248352051 0.5 0.314814299345016479
0.410659909248352051 0.5 0.302993953227996826
0.418601244688034058 0.5 0.295113712549209595
0.426542580127716064 0.5 0.295113712549209595
0.462278634309768677 0.5 0.251772373914718628
0.474190652370452881 0.5 0.247832253575325012
0.482131987810134888 0.5 0.239952012896537781
0.5178680419921875 0.541666686534881592 0.310874193906784058
0.537721395492553711 0.541666686534881592 0.291173577308654785
0.541692018508911133 0.541666686534881592 0.291173577308654785
0.569486737251281738 0.541666686534881592 0.314814299345016479
0.569486737251281738 0.541666686534881592 0.318754434585571289
0.585369408130645752 0.541666686534881592 0.342395156621932983
0.585369408130645752 0.541666686534881592 0.409377217292785645
0.589340090751647949 0.541666686534881592 0.413317352533340454
0.593310773372650146 0.541666686534881592 0.409377217292785645
0.593310773372650146 0.541666686534881592 0.393616735935211182
0.625076115131378174 0.541666686534881592 0.369976013898849487
0.660812199115753174 0.541666686534881592 0.377856254577636719
0.664782822132110596 0.541666686534881592 0.373916119337081909
0.664782822132110596 0.541666686534881592 0.358155637979507446
0.692577540874481201 0.541666686534881592 0.338455051183700562
0.712430894374847412 0.541666686534881592 0.342395156621932983
0.724342942237854004 0.541666686534881592 0.354215532541275024
0.73625493049621582 0.541666686534881592 0.338455051183700562
0.73625493049621582 0.541666686534881592 0.33057481050491333
0.748166918754577637 0.541666686534881592 0.322694540023803711
0.779932320117950439 0.541666686534881592 0.318754434585571289
0.783903002738952637 0.541666686534881592 0.322694540023803711
0.803756356239318848 0.541666686534881592 0.322694540023803711
0.827580392360687256 0.541666686534881592 0.342395156621932983
0.827580392360687256 0.541666686534881592 0.346335291862487793
0.835521697998046875 0.541666686534881592 0.354215532541275024
0.823609709739685059 0.541666686534881592 0.373916119337081909
0.827580392360687256 0.541666686534881592 0.377856254577636719
0.851404368877410889 0.541666686534881592 0.377856254577636719
0.867287099361419678 0.541666686534881592 0.389676600694656372
0.879199087619781494 0.541666686534881592 0.44089818000793457
0.867287099361419678 0.541666686534881592 0.452718555927276611
0.867287099361419678 0.541666686534881592 0.456658661365509033
0.891111075878143311 0.541666686534881592 0.472419142723083496
0.899052441120147705 0.541666686534881592 0.531520962715148926
0.895081758499145508 0.541666686534881592 0.535461068153381348
0.895081758499145508 0.541666686534881592 0.551221549510955811
0.883169770240783691 0.541666686534881592 0.55910181999206543
0.744196295738220215 0.541666686534881592 0.570922195911407471
0.740225613117218018 0.541666686534881592 0.574862301349639893
0.744196295738220215 0.541666686534881592 0.578802406787872314
0.839492380619049072 0.541666686534881592 0.578802406787872314
0.883169770240783691 0.541666686534881592 0.614263534545898438
0.879199087619781494 0.541666686534881592 0.649724602699279785
0.86331641674041748 0.541666686534881592 0.66942518949508667
0.859345734119415283 0.541666686534881592 0.66942518949508667
0.783903002738952637 0.541666686534881592 0.732467114925384521
0.779932320117950439 0.541666686534881592 0.740347385406494141
0.760078966617584229 0.541666686534881592 0.803389310836791992
0.748166918754577637 0.541666686534881592 0.819149792194366455
0.748166918754577637 0.541666686534881592 0.827030062675476074
0.648900151252746582 0.541666686534881592 0.901892364025115967
0.569486737251281738 0.541666686534881592 0.925533056259155273
0.565516054630279541 0.541666686534881592 0.921592950820922852
0.561545431613922119 0.541666686534881592 0.925533056259155273
0.561545431613922119 0.541666686534881592 0.929473161697387695
0.521838665008544922 0.541666686534881592 0.925533056259155273
0.5178680419921875 0.541666686534881592 0.929473161697387695
0.509926676750183105 0.541666686534881592 0.929473161697387695
0.5178680419921875 0.541666686534881592 0.752167761325836182
0.513897359371185303 0.541666686534881592 0.748227596282958984
0.513897359371185303 0.541666686534881592 0.724586904048919678
0.505955994129180908 0.541666686534881592 0.716706633567810059
0.490073323249816895 0.541666686534881592 0.720646798610687256
0.486102640628814697 0.541666686534881592 0.724586904048919678
0.482131987810134888 0.541666686534881592 0.756107866764068604
0.486102640628814697 0.541666686534881592 0.760047972202301025
0.490073323249816895 0.541666686534881592 0.929473161697387695
0.474190652370452881 0.541666686534881592 0.925533056259155273
0.470219969749450684 0.541666686534881592 0.929473161697387695
0.366982519626617432 0.541666686534881592 0.909772574901580811
0.271686404943466187 0.541666686534881592 0.83885037899017334
0.267715752124786377 0.541666686534881592 0.83885037899017334
0.259774386882781982 0.541666686534881592 0.830970168113708496
0.255803734064102173 0.541666686534881592 0.830970168113708496
0.247862383723258972 0.541666686534881592 0.811269581317901611
0.239921048283576965 0.541666686534881592 0.803389310836791992
0.220067679882049561 0.541666686534881592 0.736407279968261719
0.14462493360042572 0.541666686534881592 0.677305459976196289
0.14462493360042572 0.541666686534881592 0.673365294933319092
0.124771580100059509 0.541666686534881592 0.653664708137512207
0.120800912380218506 0.541666686534881592 0.61032336950302124
0.124771580100059509 0.541666686534881592 0.61032336950302124
0.14462493360042572 0.541666686534881592 0.594562888145446777
0.14462493360042572 0.541666686534881592 0.590622782707214355
0.148595601320266724 0.541666686534881592 0.590622782707214355
0.164478287100791931 0.541666686534881592 0.578802406787872314
0.291539758443832397 0.541666686534881592 0.578802406787872314
0.295510441064834595 0.541666686534881592 0.574862301349639893
0.291539758443832397 0.541666686534881592 0.570922195911407471
0.108888894319534302 0.541666686534881592 0.555161714553833008
0.100947551429271698 0.541666686534881592 0.5
0.104918226599693298 0.541666686534881592 0.49605986475944519
0.108888894319534302 0.541666686534881592 0.476359277963638306
0.132712915539741516 0.541666686534881592 0.456658661365509033
0.128742247819900513 0.541666686534881592 0.44483831524848938
0.120800912380218506 0.541666686534881592 0.436958074569702148
0.132712915539741516 0.541666686534881592 0.393616735935211182
0.152566283941268921 0.541666686534881592 0.377856254577636719
0.172419637441635132 0.541666686534881592 0.377856254577636719
0.176390305161476135 0.541666686534881592 0.373916119337081909
0.168448969721794128 0.541666686534881592 0.350275397300720215
