ply
format ascii 1.0
element vertex 346
property float x
property float y
property float z
end_header
0.445697128772735596 0.660036623477935791 0
0.453741997480392456 0.687697291374206543 0
0.45776444673538208 0.687697291374206543 0
0.469831734895706177 0.699551880359649658 0
0.485921472311019897 0.699551880359649658 0
0.489943921566009521 0.70350337028503418 0
0.489943921566009521 0.715357959270477295 0
0.493966341018676758 0.719309508800506592 0
0.506033658981323242 0.719309508800506592 0
0.510056078433990479 0.715357959270477295 0
0.510056078433990479 0.70350337028503418 0
0.514078497886657715 0.699551880359649658 0
0.530168235301971436 0.699551880359649658 0
0.550280451774597168 0.675842761993408203 0
0.554302871227264404 0.652133584022521973 0
0.538213133811950684 0.628424465656280518 0
0.538213133811950684 0.632376015186309814 0
0.534190714359283447 0.636327505111694336 0
0.526145815849304199 0.636327505111694336 0
0.514078497886657715 0.648182094097137451 0
0.510056078433990479 0.644230544567108154 0
0.506033658981323242 0.628424465656280518 0
0.489943921566009521 0.628424465656280518 0
0.489943921566009521 0.644230544567108154 0
0.485921472311019897 0.648182094097137451 0
0.481899052858352661 0.648182094097137451 0
0.473854184150695801 0.640279054641723633 0
0.473854184150695801 0.636327505111694336 0
0.46580931544303894 0.636327505111694336 0
0.45776444673538208 0.628424465656280518 0
0.45776444673538208 0.632376015186309814 0
0.441674679517745972 0.652133584022521973 0
0.45776444673538208 0.482218146324157715 0
0.469831734895706177 0.490121185779571533 0
0.489943921566009521 0.494072705507278442 0
0.493966341018676758 0.498024225234985352 0
0.493966341018676758 0.5296364426612854 0
0.497988790273666382 0.533587932586669922 0
0.502011239528656006 0.494072705507278442 0
0.514078497886657715 0.486169666051864624 0
0.534190714359283447 0.486169666051864624 0
0.546257972717285156 0.470363587141036987 0
0.546257972717285156 0.442702919244766235 0
0.510056078433990479 0.438751399517059326 0
0.502011239528656006 0.430848360061645508 0
0.497988790273666382 0.411090761423110962 0
0.489943921566009521 0.403187692165374756 0
0.489943921566009521 0.399236172437667847 0
0.485921472311019897 0.403187692165374756 0
0.485921472311019897 0.430848360061645508 0
0.489943921566009521 0.434799879789352417 0
0.485921472311019897 0.438751399517059326 0
0.453741997480392456 0.442702919244766235 0
0.369270861148834229 0.213514640927314758 0.0909090936183929443
0.385360598564147949 0.229320734739303589 0.0909090936183929443
0.385360598564147949 0.233272254467010498 0.0909090936183929443
0.413517653942108154 0.237223774194717407 0.0909090936183929443
0.413517653942108154 0.197708547115325928 0.0909090936183929443
0.377315729856491089 0.193757027387619019 0.0909090936183929443
0.373293310403823853 0.197708547115325928 0.0909090936183929443
0.365248441696166992 0.197708547115325928 0.0909090936183929443
0.40145033597946167 0.679794251918792725 0.0909090936183929443
0.417540073394775391 0.699551880359649658 0.0909090936183929443
0.421562522649765015 0.699551880359649658 0.0909090936183929443
0.445697128772735596 0.715357959270477295 0.0909090936183929443
0.502011239528656006 0.731164038181304932 0.0909090936183929443
0.506033658981323242 0.72721254825592041 0.0909090936183929443
0.562347769737243652 0.711406409740447998 0.0909090936183929443
0.590504765510559082 0.687697291374206543 0.0909090936183929443
0.590504765510559082 0.683745801448822021 0.0909090936183929443
0.610616981983184814 0.652133584022521973 0.0909090936183929443
0.626706719398498535 0.486169666051864624 0.0909090936183929443
0.622684240341186523 0.482218146324157715 0.0909090936183929443
0.602572083473205566 0.379478573799133301 0.0909090936183929443
0.59854966402053833 0.379478573799133301 0.0909090936183929443
0.582459926605224609 0.367624014616012573 0.0909090936183929443
0.558325290679931641 0.371575534343719482 0.0909090936183929443
0.554302871227264404 0.367624014616012573 0.0909090936183929443
0.473854184150695801 0.371575534343719482 0.0909090936183929443
0.469831734895706177 0.367624014616012573 0.0909090936183929443
0.429607391357421875 0.371575534343719482 0.0909090936183929443
0.421562522649765015 0.367624014616012573 0.0909090936183929443
0.417540073394775391 0.363672494888305664 0.0909090936183929443
0.39340546727180481 0.38343009352684021 0.0909090936183929443
0.373293310403823853 0.478266626596450806 0.0909090936183929443
0.582459926605224609 0.237223774194717407 0.0909090936183929443
0.606594502925872803 0.237223774194717407 0.0909090936183929443
0.630729138851165771 0.209563121199607849 0.0909090936183929443
0.630729138851165771 0.197708547115325928 0.0909090936183929443
0.594527244567871094 0.193757027387619019 0.0909090936183929443
0.586482346057891846 0.197708547115325928 0.0909090936183929443
0.582459926605224609 0.201660066843032837 0.0909090936183929443
0.39340546727180481 0.675842761993408203 0.181818187236785889
0.429607391357421875 0.70350337028503418 0.181818187236785889
0.510056078433990479 0.719309508800506592 0.181818187236785889
0.514078497886657715 0.715357959270477295 0.181818187236785889
0.578437507152557373 0.699551880359649658 0.181818187236785889
0.606594502925872803 0.667939722537994385 0.181818187236785889
0.634751558303833008 0.513830304145812988 0.181818187236785889
0.59854966402053833 0.45850902795791626 0.181818187236785889
0.594527244567871094 0.45850902795791626 0.181818187236785889
0.590504765510559082 0.454557508230209351 0.181818187236785889
0.578437507152557373 0.391333132982254028 0.181818187236785889
0.550280451774597168 0.367624014616012573 0.181818187236785889
0.550280451774597168 0.34391486644744873 0.181818187236785889
0.546257972717285156 0.339963346719741821 0.181818187236785889
0.538213133811950684 0.339963346719741821 0.181818187236785889
0.534190714359283447 0.359720975160598755 0.181818187236785889
0.522123396396636963 0.367624014616012573 0.181818187236785889
0.502011239528656006 0.367624014616012573 0.181818187236785889
0.497988790273666382 0.371575534343719482 0.181818187236785889
0.493966341018676758 0.367624014616012573 0.181818187236785889
0.473854184150695801 0.367624014616012573 0.181818187236785889
0.45776444673538208 0.34786638617515564 0.181818187236785889
0.45776444673538208 0.339963346719741821 0.181818187236785889
0.453741997480392456 0.339963346719741821 0.181818187236785889
0.44971957802772522 0.34391486644744873 0.181818187236785889
0.445697128772735596 0.367624014616012573 0.181818187236785889
0.40949520468711853 0.411090761423110962 0.181818187236785889
0.405472785234451294 0.454557508230209351 0.181818187236785889
0.40145033597946167 0.45850902795791626 0.181818187236785889
0.397427916526794434 0.45850902795791626 0.181818187236785889
0.397427916526794434 0.462460547685623169 0.181818187236785889
0.365248441696166992 0.509878814220428467 0.181818187236785889
0.365248441696166992 0.5296364426612854 0.181818187236785889
0.361225992441177368 0.533587932586669922 0.181818187236785889
0.377315729856491089 0.624472975730895996 0.272727280855178833
0.413517653942108154 0.667939722537994385 0.272727280855178833
0.417540073394775391 0.683745801448822021 0.272727280855178833
0.421562522649765015 0.683745801448822021 0.272727280855178833
0.429607391357421875 0.695600330829620361 0.272727280855178833
0.506033658981323242 0.715357959270477295 0.272727280855178833
0.510056078433990479 0.711406409740447998 0.272727280855178833
0.570392608642578125 0.695600330829620361 0.272727280855178833
0.570392608642578125 0.69164884090423584 0.272727280855178833
0.582459926605224609 0.679794251918792725 0.272727280855178833
0.586482346057891846 0.660036623477935791 0.272727280855178833
0.638773977756500244 0.588909268379211426 0.272727280855178833
0.658886194229125977 0.490121185779571533 0.272727280855178833
0.654863715171813965 0.486169666051864624 0.272727280855178833
0.646818876266479492 0.446654438972473145 0.272727280855178833
0.626706719398498535 0.422945320606231689 0.272727280855178833
0.618661820888519287 0.41899380087852478 0.272727280855178833
0.586482346057891846 0.407139241695404053 0.272727280855178833
0.566370189189910889 0.38343009352684021 0.272727280855178833
0.558325290679931641 0.379478573799133301 0.272727280855178833
0.453741997480392456 0.375527054071426392 0.272727280855178833
0.44971957802772522 0.379478573799133301 0.272727280855178833
0.437652260065078735 0.379478573799133301 0.272727280855178833
0.417540073394775391 0.395284652709960938 0.272727280855178833
0.417540073394775391 0.399236172437667847 0.272727280855178833
0.353181123733520508 0.442702919244766235 0.272727280855178833
0.341113835573196411 0.466412067413330078 0.272727280855178833
0.365248441696166992 0.592860758304595947 0.363636374473571777
0.441674679517745972 0.687697291374206543 0.363636374473571777
0.473854184150695801 0.699551880359649658 0.363636374473571777
0.481899052858352661 0.707454919815063477 0.363636374473571777
0.502011239528656006 0.711406409740447998 0.363636374473571777
0.506033658981323242 0.707454919815063477 0.363636374473571777
0.554302871227264404 0.687697291374206543 0.363636374473571777
0.650841295719146729 0.557297050952911377 0.363636374473571777
0.658886194229125977 0.494072705507278442 0.363636374473571777
0.662908613681793213 0.490121185779571533 0.363636374473571777
0.658886194229125977 0.486169666051864624 0.363636374473571777
0.646818876266479492 0.434799879789352417 0.363636374473571777
0.626706719398498535 0.411090761423110962 0.363636374473571777
0.622684240341186523 0.411090761423110962 0.363636374473571777
0.578437507152557373 0.379478573799133301 0.363636374473571777
0.578437507152557373 0.375527054071426392 0.363636374473571777
0.45776444673538208 0.367624014616012573 0.363636374473571777
0.453741997480392456 0.371575534343719482 0.363636374473571777
0.421562522649765015 0.375527054071426392 0.363636374473571777
0.40949520468711853 0.391333132982254028 0.363636374473571777
0.389383047819137573 0.399236172437667847 0.363636374473571777
0.353181123733520508 0.430848360061645508 0.363636374473571777
0.337091386318206787 0.474315106868743896 0.363636374473571777
0.397427916526794434 0.624472975730895996 0.454545468091964722
0.46580931544303894 0.695600330829620361 0.454545468091964722
0.469831734895706177 0.695600330829620361 0.454545468091964722
0.485921472311019897 0.707454919815063477 0.454545468091964722
0.493966341018676758 0.707454919815063477 0.454545468091964722
0.497988790273666382 0.711406409740447998 0.454545468091964722
0.502011239528656006 0.707454919815063477 0.454545468091964722
0.518100976943969727 0.70350337028503418 0.454545468091964722
0.546257972717285156 0.683745801448822021 0.454545468091964722
0.546257972717285156 0.679794251918792725 0.454545468091964722
0.626706719398498535 0.573103189468383789 0.454545468091964722
0.634751558303833008 0.482218146324157715 0.454545468091964722
0.630729138851165771 0.478266626596450806 0.454545468091964722
0.614639401435852051 0.438751399517059326 0.454545468091964722
0.566370189189910889 0.395284652709960938 0.454545468091964722
0.477876603603363037 0.38343009352684021 0.454545468091964722
0.473854184150695801 0.387381613254547119 0.454545468091964722
0.433629810810089111 0.395284652709960938 0.454545468091964722
0.385360598564147949 0.434799879789352417 0.454545468091964722
0.361225992441177368 0.494072705507278442 0.454545468091964722
0.40949520468711853 0.640279054641723633 0.545454561710357666
0.445697128772735596 0.687697291374206543 0.545454561710357666
0.44971957802772522 0.687697291374206543 0.545454561710357666
0.481899052858352661 0.711406409740447998 0.545454561710357666
0.493966341018676758 0.711406409740447998 0.545454561710357666
0.497988790273666382 0.715357959270477295 0.545454561710357666
0.502011239528656006 0.711406409740447998 0.545454561710357666
0.522123396396636963 0.707454919815063477 0.545454561710357666
0.570392608642578125 0.667939722537994385 0.545454561710357666
0.574415028095245361 0.65608513355255127 0.545454561710357666
0.610616981983184814 0.596812307834625244 0.545454561710357666
0.622684240341186523 0.521733343601226807 0.545454561710357666
0.618661820888519287 0.517781853675842285 0.545454561710357666
0.622684240341186523 0.513830304145812988 0.545454561710357666
0.622684240341186523 0.509878814220428467 0.545454561710357666
0.602572083473205566 0.482218146324157715 0.545454561710357666
0.594527244567871094 0.450605958700180054 0.545454561710357666
0.578437507152557373 0.426896840333938599 0.545454561710357666
0.578437507152557373 0.422945320606231689 0.545454561710357666
0.574415028095245361 0.422945320606231689 0.545454561710357666
0.558325290679931641 0.407139241695404053 0.545454561710357666
0.558325290679931641 0.403187692165374756 0.545454561710357666
0.46580931544303894 0.395284652709960938 0.545454561710357666
0.461786866188049316 0.399236172437667847 0.545454561710357666
0.45776444673538208 0.399236172437667847 0.545454561710357666
0.453741997480392456 0.395284652709960938 0.545454561710357666
0.417540073394775391 0.426896840333938599 0.545454561710357666
0.413517653942108154 0.438751399517059326 0.545454561710357666
0.40145033597946167 0.454557508230209351 0.545454561710357666
0.385360598564147949 0.501975774765014648 0.545454561710357666
0.377315729856491089 0.509878814220428467 0.545454561710357666
0.377315729856491089 0.577054679393768311 0.636363625526428223
0.397427916526794434 0.608666837215423584 0.636363625526428223
0.40145033597946167 0.624472975730895996 0.636363625526428223
0.469831734895706177 0.707454919815063477 0.636363625526428223
0.477876603603363037 0.711406409740447998 0.636363625526428223
0.502011239528656006 0.715357959270477295 0.636363625526428223
0.506033658981323242 0.711406409740447998 0.636363625526428223
0.534190714359283447 0.70350337028503418 0.636363625526428223
0.534190714359283447 0.699551880359649658 0.636363625526428223
0.562347769737243652 0.675842761993408203 0.636363625526428223
0.562347769737243652 0.671891212463378906 0.636363625526428223
0.622684240341186523 0.569151639938354492 0.636363625526428223
0.59854966402053833 0.407139241695404053 0.636363625526428223
0.582459926605224609 0.395284652709960938 0.636363625526428223
0.566370189189910889 0.399236172437667847 0.636363625526428223
0.562347769737243652 0.403187692165374756 0.636363625526428223
0.550280451774597168 0.391333132982254028 0.636363625526428223
0.473854184150695801 0.395284652709960938 0.636363625526428223
0.469831734895706177 0.391333132982254028 0.636363625526428223
0.445697128772735596 0.391333132982254028 0.636363625526428223
0.437652260065078735 0.399236172437667847 0.636363625526428223
0.413517653942108154 0.395284652709960938 0.636363625526428223
0.405472785234451294 0.403187692165374756 0.636363625526428223
0.40145033597946167 0.403187692165374756 0.636363625526428223
0.373293310403823853 0.525684893131256104 0.636363625526428223
0.385360598564147949 0.221417680382728577 0.636363625526428223
0.39340546727180481 0.229320734739303589 0.636363625526428223
0.39340546727180481 0.237223774194717407 0.636363625526428223
0.405472785234451294 0.245126813650131226 0.636363625526428223
0.405472785234451294 0.253029853105545044 0.636363625526428223
0.413517653942108154 0.260932892560958862 0.636363625526428223
0.421562522649765015 0.253029853105545044 0.636363625526428223
0.429607391357421875 0.201660066843032837 0.636363625526428223
0.413517653942108154 0.201660066843032837 0.636363625526428223
0.40949520468711853 0.197708547115325928 0.636363625526428223
0.405472785234451294 0.201660066843032837 0.636363625526428223
0.381338179111480713 0.201660066843032837 0.636363625526428223
0.578437507152557373 0.256981372833251953 0.636363625526428223
0.582459926605224609 0.260932892560958862 0.636363625526428223
0.586482346057891846 0.256981372833251953 0.636363625526428223
0.590504765510559082 0.256981372833251953 0.636363625526428223
0.590504765510559082 0.249078333377838135 0.636363625526428223
0.614639401435852051 0.217466160655021667 0.636363625526428223
0.614639401435852051 0.201660066843032837 0.636363625526428223
0.594527244567871094 0.201660066843032837 0.636363625526428223
0.590504765510559082 0.197708547115325928 0.636363625526428223
0.586482346057891846 0.201660066843032837 0.636363625526428223
0.570392608642578125 0.201660066843032837 0.636363625526428223
0.570392608642578125 0.20561160147190094 0.636363625526428223
0.566370189189910889 0.209563121199607849 0.636363625526428223
0.473854184150695801 0.715357959270477295 0.727272748947143555
0.497988790273666382 0.731164038181304932 0.727272748947143555
0.510056078433990479 0.72721254825592041 0.727272748947143555
0.530168235301971436 0.70350337028503418 0.727272748947143555
0.562347769737243652 0.545442521572113037 0.727272748947143555
0.550280451774597168 0.525684893131256104 0.727272748947143555
0.530168235301971436 0.41899380087852478 0.727272748947143555
0.477876603603363037 0.415042281150817871 0.727272748947143555
0.473854184150695801 0.41899380087852478 0.727272748947143555
0.46580931544303894 0.41899380087852478 0.727272748947143555
0.433629810810089111 0.549394011497497559 0.727272748947143555
0.469831734895706177 0.754873156547546387 0.818181812763214111
0.473854184150695801 0.754873156547546387 0.818181812763214111
0.489943921566009521 0.766727745532989502 0.818181812763214111
0.522123396396636963 0.758824706077575684 0.818181812763214111
0.534190714359283447 0.743018627166748047 0.818181812763214111
0.546257972717285156 0.640279054641723633 0.818181812763214111
0.54223555326461792 0.636327505111694336 0.818181812763214111
0.530168235301971436 0.581006228923797607 0.818181812763214111
0.514078497886657715 0.557297050952911377 0.818181812763214111
0.481899052858352661 0.557297050952911377 0.818181812763214111
0.477876603603363037 0.569151639938354492 0.818181812763214111
0.46580931544303894 0.584957718849182129 0.818181812763214111
0.44971957802772522 0.652133584022521973 0.818181812763214111
0.405472785234451294 0.806242942810058594 0.909090936183929443
0.417540073394775391 0.806242942810058594 0.909090936183929443
0.425584942102432251 0.798339903354644775 0.909090936183929443
0.421562522649765015 0.786485373973846436 0.909090936183929443
0.40949520468711853 0.790436863899230957 0.909090936183929443
0.405472785234451294 0.794388413429260254 0.909090936183929443
0.441674679517745972 0.711406409740447998 0.909090936183929443
0.445697128772735596 0.715357959270477295 0.909090936183929443
0.441674679517745972 0.719309508800506592 0.909090936183929443
0.445697128772735596 0.723260998725891113 0.909090936183929443
0.44971957802772522 0.758824706077575684 0.909090936183929443
0.469831734895706177 0.778582334518432617 0.909090936183929443
0.514078497886657715 0.782533824443817139 0.909090936183929443
0.518100976943969727 0.778582334518432617 0.909090936183929443
0.526145815849304199 0.778582334518432617 0.909090936183929443
0.538213133811950684 0.766727745532989502 0.909090936183929443
0.54223555326461792 0.766727745532989502 0.909090936183929443
0.562347769737243652 0.675842761993408203 0.909090936183929443
0.558325290679931641 0.671891212463378906 0.909090936183929443
0.558325290679931641 0.648182094097137451 0.909090936183929443
0.526145815849304199 0.616569876670837402 0.909090936183929443
0.469831734895706177 0.616569876670837402 0.909090936183929443
0.44971957802772522 0.640279054641723633 0.909090936183929443
0.445697128772735596 0.640279054641723633 0.909090936183929443
0.441674679517745972 0.644230544567108154 0.909090936183929443
0.441674679517745972 0.648182094097137451 0.909090936183929443
0.437652260065078735 0.652133584022521973 0.909090936183929443
0.574415028095245361 0.802291452884674072 0.909090936183929443
0.578437507152557373 0.806242942810058594 0.909090936183929443
0.590504765510559082 0.806242942810058594 0.909090936183929443
0.590504765510559082 0.794388413429260254 0.909090936183929443
0.582459926605224609 0.786485373973846436 0.909090936183929443
0.574415028095245361 0.786485373973846436 0.909090936183929443
0.477876603603363037 0.70350337028503418 1
0.485921472311019897 0.711406409740447998 1
0.485921472311019897 0.715357959270477295 1
0.493966341018676758 0.715357959270477295 1
0.497988790273666382 0.719309508800506592 1
0.502011239528656006 0.715357959270477295 1
0.510056078433990479 0.715357959270477295 1
0.530168235301971436 0.683745801448822021 1
0.534190714359283447 0.644230544567108154 1
0.514078497886657715 0.628424465656280518 1
0.473854184150695801 0.632376015186309814 1
0.46580931544303894 0.640279054641723633 1
