ply
format ascii 1.0
element vertex 346
property float x
property float y
property float z
end_header
0.445697128772735596 0 0.660036623477935791
0.453741997480392456 0 0.687697291374206543
0.45776444673538208 0 0.687697291374206543
0.469831734895706177 0 0.699551880359649658
0.485921472311019897 0 0.699551880359649658
0.489943921566009521 0 0.70350337028503418
0.489943921566009521 0 0.715357959270477295
0.493966341018676758 0 0.719309508800506592
0.506033658981323242 0 0.719309508800506592
0.510056078433990479 0 0.715357959270477295
0.510056078433990479 0 0.70350337028503418
0.514078497886657715 0 0.699551880359649658
0.530168235301971436 0 0.699551880359649658
0.550280451774597168 0 0.675842761993408203
0.554302871227264404 0 0.652133584022521973
0.538213133811950684 0 0.628424465656280518
0.538213133811950684 0 0.632376015186309814
0.534190714359283447 0 0.636327505111694336
0.526145815849304199 0 0.636327505111694336
0.514078497886657715 0 0.648182094097137451
0.510056078433990479 0 0.644230544567108154
0.506033658981323242 0 0.628424465656280518
0.489943921566009521 0 0.628424465656280518
0.489943921566009521 0 0.644230544567108154
0.485921472311019897 0 0.648182094097137451
0.481899052858352661 0 0.648182094097137451
0.473854184150695801 0 0.640279054641723633
0.473854184150695801 0 0.636327505111694336
0.46580931544303894 0 0.636327505111694336
0.45776444673538208 0 0.628424465656280518
0.45776444673538208 0 0.632376015186309814
0.441674679517745972 0 0.652133584022521973
0.45776444673538208 0 0.482218146324157715
0.469831734895706177 0 0.490121185779571533
0.489943921566009521 0 0.494072705507278442
0.493966341018676758 0 0.498024225234985352
0.493966341018676758 0 0.5296364426612854
0.497988790273666382 0 0.533587932586669922
0.502011239528656006 0 0.494072705507278442
0.514078497886657715 0 0.486169666051864624
0.534190714359283447 0 0.486169666051864624
0.546257972717285156 0 0.470363587141036987
0.546257972717285156 0 0.442702919244766235
0.510056078433990479 0 0.438751399517059326
0.502011239528656006 0 0.430848360061645508
0.497988790273666382 0 0.411090761423110962
0.489943921566009521 0 0.403187692165374756
0.489943921566009521 0 0.399236172437667847
0.485921472311019897 0 0.403187692165374756
0.485921472311019897 0 0.430848360061645508
0.489943921566009521 0 0.434799879789352417
0.485921472311019897 0 0.438751399517059326
0.453741997480392456 0 0.442702919244766235
0.369270861148834229 0.0909090936183929443 0.213514640927314758
0.385360598564147949 0.0909090936183929443 0.229320734739303589
0.385360598564147949 0.0909090936183929443 0.233272254467010498
0.413517653942108154 0.0909090936183929443 0.237223774194717407
0.413517653942108154 0.0909090936183929443 0.197708547115325928
0.377315729856491089 0.0909090936183929443 0.193757027387619019
0.373293310403823853 0.0909090936183929443 0.197708547115325928
0.365248441696166992 0.0909090936183929443 0.197708547115325928
0.40145033597946167 0.0909090936183929443 0.679794251918792725
0.417540073394775391 0.0909090936183929443 0.699551880359649658
0.421562522649765015 0.0909090936183929443 0.699551880359649658
0.445697128772735596 0.0909090936183929443 0.715357959270477295
0.502011239528656006 0.0909090936183929443 0.731164038181304932
0.506033658981323242 0.0909090936183929443 0.72721254825592041
0.562347769737243652 0.0909090936183929443 0.711406409740447998
0.590504765510559082 0.0909090936183929443 0.687697291374206543
0.590504765510559082 0.0909090936183929443 0.683745801448822021
0.610616981983184814 0.0909090936183929443 0.652133584022521973
0.626706719398498535 0.0909090936183929443 0.486169666051864624
0.622684240341186523 0.0909090936183929443 0.482218146324157715
0.602572083473205566 0.0909090936183929443 0.379478573799133301
0.59854966402053833 0.0909090936183929443 0.379478573799133301
0.582459926605224609 0.0909090936183929443 0.367624014616012573
0.558325290679931641 0.0909090936183929443 0.371575534343719482
0.554302871227264404 0.0909090936183929443 0.367624014616012573
0.473854184150695801 0.0909090936183929443 0.371575534343719482
0.469831734895706177 0.0909090936183929443 0.367624014616012573
0.429607391357421875 0.0909090936183929443 0.371575534343719482
0.421562522649765015 0.0909090936183929443 0.367624014616012573
0.417540073394775391 0.0909090936183929443 0.363672494888305664
0.39340546727180481 0.0909090936183929443 0.38343009352684021
0.373293310403823853 0.0909090936183929443 0.478266626596450806
0.582459926605224609 0.0909090936183929443 0.237223774194717407
0.606594502925872803 0.0909090936183929443 0.237223774194717407
0.630729138851165771 0.0909090936183929443 0.209563121199607849
0.630729138851165771 0.0909090936183929443 0.197708547115325928
0.594527244567871094 0.0909090936183929443 0.193757027387619019
0.586482346057891846 0.0909090936183929443 0.197708547115325928
0.582459926605224609 0.0909090936183929443 0.201660066843032837
0.39340546727180481 0.181818187236785889 0.675842761993408203
0.429607391357421875 0.181818187236785889 0.70350337028503418
0.510056078433990479 0.181818187236785889 0.719309508800506592
0.514078497886657715 0.181818187236785889 0.715357959270477295
0.578437507152557373 0.181818187236785889 0.699551880359649658
0.606594502925872803 0.181818187236785889 0.667939722537994385
0.634751558303833008 0.181818187236785889 0.513830304145812988
0.59854966402053833 0.181818187236785889 0.45850902795791626
0.594527244567871094 0.181818187236785889 0.45850902795791626
0.590504765510559082 0.181818187236785889 0.454557508230209351
0.578437507152557373 0.181818187236785889 0.391333132982254028
0.550280451774597168 0.181818187236785889 0.367624014616012573
0.550280451774597168 0.181818187236785889 0.34391486644744873
0.546257972717285156 0.181818187236785889 0.339963346719741821
0.538213133811950684 0.181818187236785889 0.339963346719741821
0.534190714359283447 0.181818187236785889 0.359720975160598755
0.522123396396636963 0.181818187236785889 0.367624014616012573
0.502011239528656006 0.181818187236785889 0.367624014616012573
0.497988790273666382 0.181818187236785889 0.371575534343719482
0.493966341018676758 0.181818187236785889 0.367624014616012573
0.473854184150695801 0.181818187236785889 0.367624014616012573
0.45776444673538208 0.181818187236785889 0.34786638617515564
0.45776444673538208 0.181818187236785889 0.339963346719741821
0.453741997480392456 0.181818187236785889 0.339963346719741821
0.44971957802772522 0.181818187236785889 0.34391486644744873
0.445697128772735596 0.181818187236785889 0.367624014616012573
0.40949520468711853 0.181818187236785889 0.411090761423110962
0.405472785234451294 0.181818187236785889 0.454557508230209351
0.40145033597946167 0.181818187236785889 0.45850902795791626
0.397427916526794434 0.181818187236785889 0.45850902795791626
0.397427916526794434 0.181818187236785889 0.462460547685623169
0.365248441696166992 0.181818187236785889 0.509878814220428467
0.365248441696166992 0.181818187236785889 0.5296364426612854
0.361225992441177368 0.181818187236785889 0.533587932586669922
0.377315729856491089 0.272727280855178833 0.624472975730895996
0.413517653942108154 0.272727280855178833 0.667939722537994385
0.417540073394775391 0.272727280855178833 0.683745801448822021
0.421562522649765015 0.272727280855178833 0.683745801448822021
0.429607391357421875 0.272727280855178833 0.695600330829620361
0.506033658981323242 0.272727280855178833 0.715357959270477295
0.510056078433990479 0.272727280855178833 0.711406409740447998
0.570392608642578125 0.272727280855178833 0.695600330829620361
0.570392608642578125 0.272727280855178833 0.69164884090423584
0.582459926605224609 0.272727280855178833 0.679794251918792725
0.586482346057891846 0.272727280855178833 0.660036623477935791
0.638773977756500244 0.272727280855178833 0.588909268379211426
0.658886194229125977 0.272727280855178833 0.490121185779571533
0.654863715171813965 0.272727280855178833 0.486169666051864624
0.646818876266479492 0.272727280855178833 0.446654438972473145
0.626706719398498535 0.272727280855178833 0.422945320606231689
0.618661820888519287 0.272727280855178833 0.41899380087852478
0.586482346057891846 0.272727280855178833 0.407139241695404053
0.566370189189910889 0.272727280855178833 0.38343009352684021
0.558325290679931641 0.272727280855178833 0.379478573799133301
0.453741997480392456 0.272727280855178833 0.375527054071426392
0.44971957802772522 0.272727280855178833 0.379478573799133301
0.437652260065078735 0.272727280855178833 0.379478573799133301
0.417540073394775391 0.272727280855178833 0.395284652709960938
0.417540073394775391 0.272727280855178833 0.399236172437667847
0.353181123733520508 0.272727280855178833 0.442702919244766235
0.341113835573196411 0.272727280855178833 0.466412067413330078
0.365248441696166992 0.363636374473571777 0.592860758304595947
0.441674679517745972 0.363636374473571777 0.687697291374206543
0.473854184150695801 0.363636374473571777 0.699551880359649658
0.481899052858352661 0.363636374473571777 0.707454919815063477
0.502011239528656006 0.363636374473571777 0.711406409740447998
0.506033658981323242 0.363636374473571777 0.707454919815063477
0.554302871227264404 0.363636374473571777 0.687697291374206543
0.650841295719146729 0.363636374473571777 0.557297050952911377
0.658886194229125977 0.363636374473571777 0.494072705507278442
0.662908613681793213 0.363636374473571777 0.490121185779571533
0.658886194229125977 0.363636374473571777 0.486169666051864624
0.646818876266479492 0.363636374473571777 0.434799879789352417
0.626706719398498535 0.363636374473571777 0.411090761423110962
0.622684240341186523 0.363636374473571777 0.411090761423110962
0.578437507152557373 0.363636374473571777 0.379478573799133301
0.578437507152557373 0.363636374473571777 0.375527054071426392
0.45776444673538208 0.363636374473571777 0.367624014616012573
0.453741997480392456 0.363636374473571777 0.371575534343719482
0.421562522649765015 0.363636374473571777 0.375527054071426392
0.40949520468711853 0.363636374473571777 0.391333132982254028
0.389383047819137573 0.363636374473571777 0.399236172437667847
0.353181123733520508 0.363636374473571777 0.430848360061645508
0.337091386318206787 0.363636374473571777 0.474315106868743896
0.397427916526794434 0.454545468091964722 0.624472975730895996
0.46580931544303894 0.454545468091964722 0.695600330829620361
0.469831734895706177 0.454545468091964722 0.695600330829620361
0.485921472311019897 0.454545468091964722 0.707454919815063477
0.493966341018676758 0.454545468091964722 0.707454919815063477
0.497988790273666382 0.454545468091964722 0.711406409740447998
0.502011239528656006 0.454545468091964722 0.707454919815063477
0.518100976943969727 0.454545468091964722 0.70350337028503418
0.546257972717285156 0.454545468091964722 0.683745801448822021
0.546257972717285156 0.454545468091964722 0.679794251918792725
0.626706719398498535 0.454545468091964722 0.573103189468383789
0.634751558303833008 0.454545468091964722 0.482218146324157715
0.630729138851165771 0.454545468091964722 0.478266626596450806
0.614639401435852051 0.454545468091964722 0.438751399517059326
0.566370189189910889 0.454545468091964722 0.395284652709960938
0.477876603603363037 0.454545468091964722 0.38343009352684021
0.473854184150695801 0.454545468091964722 0.387381613254547119
0.433629810810089111 0.454545468091964722 0.395284652709960938
0.385360598564147949 0.454545468091964722 0.434799879789352417
0.361225992441177368 0.454545468091964722 0.494072705507278442
0.40949520468711853 0.545454561710357666 0.640279054641723633
0.445697128772735596 0.545454561710357666 0.687697291374206543
0.44971957802772522 0.545454561710357666 0.687697291374206543
0.481899052858352661 0.545454561710357666 0.711406409740447998
0.493966341018676758 0.545454561710357666 0.711406409740447998
0.497988790273666382 0.545454561710357666 0.715357959270477295
0.502011239528656006 0.545454561710357666 0.711406409740447998
0.522123396396636963 0.545454561710357666 0.707454919815063477
0.570392608642578125 0.545454561710357666 0.667939722537994385
0.574415028095245361 0.545454561710357666 0.65608513355255127
0.610616981983184814 0.545454561710357666 0.596812307834625244
0.622684240341186523 0.545454561710357666 0.521733343601226807
0.618661820888519287 0.545454561710357666 0.517781853675842285
0.622684240341186523 0.545454561710357666 0.513830304145812988
0.622684240341186523 0.545454561710357666 0.509878814220428467
0.602572083473205566 0.545454561710357666 0.482218146324157715
0.594527244567871094 0.545454561710357666 0.450605958700180054
0.578437507152557373 0.545454561710357666 0.426896840333938599
0.578437507152557373 0.545454561710357666 0.422945320606231689
0.574415028095245361 0.545454561710357666 0.422945320606231689
0.558325290679931641 0.545454561710357666 0.407139241695404053
0.558325290679931641 0.545454561710357666 0.403187692165374756
0.46580931544303894 0.545454561710357666 0.395284652709960938
0.461786866188049316 0.545454561710357666 0.399236172437667847
0.45776444673538208 0.545454561710357666 0.399236172437667847
0.453741997480392456 0.545454561710357666 0.395284652709960938
0.417540073394775391 0.545454561710357666 0.426896840333938599
0.413517653942108154 0.545454561710357666 0.438751399517059326
0.40145033597946167 0.545454561710357666 0.454557508230209351
0.385360598564147949 0.545454561710357666 0.501975774765014648
0.377315729856491089 0.545454561710357666 0.509878814220428467
0.377315729856491089 0.636363625526428223 0.577054679393768311
0.397427916526794434 0.636363625526428223 0.608666837215423584
0.40145033597946167 0.636363625526428223 0.624472975730895996
0.469831734895706177 0.636363625526428223 0.707454919815063477
0.477876603603363037 0.636363625526428223 0.711406409740447998
0.502011239528656006 0.636363625526428223 0.715357959270477295
0.506033658981323242 0.636363625526428223 0.711406409740447998
0.534190714359283447 0.636363625526428223 0.70350337028503418
0.534190714359283447 0.636363625526428223 0.699551880359649658
0.562347769737243652 0.636363625526428223 0.675842761993408203
0.562347769737243652 0.636363625526428223 0.671891212463378906
0.622684240341186523 0.636363625526428223 0.569151639938354492
0.59854966402053833 0.636363625526428223 0.407139241695404053
0.582459926605224609 0.636363625526428223 0.395284652709960938
0.566370189189910889 0.636363625526428223 0.399236172437667847
0.562347769737243652 0.636363625526428223 0.403187692165374756
0.550280451774597168 0.636363625526428223 0.391333132982254028
0.473854184150695801 0.636363625526428223 0.395284652709960938
0.469831734895706177 0.636363625526428223 0.391333132982254028
0.445697128772735596 0.636363625526428223 0.391333132982254028
0.437652260065078735 0.636363625526428223 0.399236172437667847
0.413517653942108154 0.636363625526428223 0.395284652709960938
0.405472785234451294 0.636363625526428223 0.403187692165374756
0.40145033597946167 0.636363625526428223 0.403187692165374756
0.373293310403823853 0.636363625526428223 0.525684893131256104
0.385360598564147949 0.636363625526428223 0.221417680382728577
0.39340546727180481 0.636363625526428223 0.229320734739303589
0.39340546727180481 0.636363625526428223 0.237223774194717407
0.405472785234451294 0.636363625526428223 0.245126813650131226
0.405472785234451294 0.636363625526428223 0.253029853105545044
0.413517653942108154 0.636363625526428223 0.260932892560958862
0.421562522649765015 0.636363625526428223 0.253029853105545044
0.429607391357421875 0.636363625526428223 0.201660066843032837
0.413517653942108154 0.636363625526428223 0.201660066843032837
0.40949520468711853 0.636363625526428223 0.197708547115325928
0.405472785234451294 0.636363625526428223 0.201660066843032837
0.381338179111480713 0.636363625526428223 0.201660066843032837
0.578437507152557373 0.636363625526428223 0.256981372833251953
0.582459926605224609 0.636363625526428223 0.260932892560958862
0.586482346057891846 0.636363625526428223 0.256981372833251953
0.590504765510559082 0.636363625526428223 0.256981372833251953
0.590504765510559082 0.636363625526428223 0.249078333377838135
0.614639401435852051 0.636363625526428223 0.217466160655021667
0.614639401435852051 0.636363625526428223 0.201660066843032837
0.594527244567871094 0.636363625526428223 0.201660066843032837
0.590504765510559082 0.636363625526428223 0.197708547115325928
0.586482346057891846 0.636363625526428223 0.201660066843032837
0.570392608642578125 0.636363625526428223 0.201660066843032837
0.570392608642578125 0.636363625526428223 0.20561160147190094
0.566370189189910889 0.636363625526428223 0.209563121199607849
0.473854184150695801 0.727272748947143555 0.715357959270477295
0.497988790273666382 0.727272748947143555 0.731164038181304932
0.510056078433990479 0.727272748947143555 0.72721254825592041
0.530168235301971436 0.727272748947143555 0.70350337028503418
0.562347769737243652 0.727272748947143555 0.545442521572113037
0.550280451774597168 0.727272748947143555 0.525684893131256104
0.530168235301971436 0.727272748947143555 0.41899380087852478
0.477876603603363037 0.727272748947143555 0.415042281150817871
0.473854184150695801 0.727272748947143555 0.41899380087852478
0.46580931544303894 0.727272748947143555 0.41899380087852478
0.433629810810089111 0.727272748947143555 0.549394011497497559
0.469831734895706177 0.818181812763214111 0.754873156547546387
0.473854184150695801 0.818181812763214111 0.754873156547546387
0.489943921566009521 0.818181812763214111 0.766727745532989502
0.522123396396636963 0.818181812763214111 0.758824706077575684
0.534190714359283447 0.818181812763214111 0.743018627166748047
0.546257972717285156 0.818181812763214111 0.640279054641723633
0.54223555326461792 0.818181812763214111 0.636327505111694336
0.530168235301971436 0.818181812763214111 0.581006228923797607
0.514078497886657715 0.818181812763214111 0.557297050952911377
0.481899052858352661 0.818181812763214111 0.557297050952911377
0.477876603603363037 0.818181812763214111 0.569151639938354492
0.46580931544303894 0.818181812763214111 0.584957718849182129
0.44971957802772522 0.818181812763214111 0.652133584022521973
0.405472785234451294 0.909090936183929443 0.806242942810058594
0.417540073394775391 0.909090936183929443 0.806242942810058594
0.425584942102432251 0.909090936183929443 0.798339903354644775
0.421562522649765015 0.909090936183929443 0.786485373973846436
0.40949520468711853 0.909090936183929443 0.790436863899230957
0.405472785234451294 0.909090936183929443 0.794388413429260254
0.441674679517745972 0.909090936183929443 0.711406409740447998
0.445697128772735596 0.909090936183929443 0.715357959270477295
0.441674679517745972 0.909090936183929443 0.719309508800506592
0.445697128772735596 0.909090936183929443 0.723260998725891113
0.44971957802772522 0.909090936183929443 0.758824706077575684
0.469831734895706177 0.909090936183929443 0.778582334518432617
0.514078497886657715 0.909090936183929443 0.782533824443817139
0.518100976943969727 0.909090936183929443 0.778582334518432617
0.526145815849304199 0.909090936183929443 0.778582334518432617
0.538213133811950684 0.909090936183929443 0.766727745532989502
0.54223555326461792 0.909090936183929443 0.766727745532989502
0.562347769737243652 0.909090936183929443 0.675842761993408203
0.558325290679931641 0.909090936183929443 0.671891212463378906
0.558325290679931641 0.909090936183929443 0.648182094097137451
0.526145815849304199 0.909090936183929443 0.616569876670837402
0.469831734895706177 0.909090936183929443 0.616569876670837402
0.44971957802772522 0.909090936183929443 0.640279054641723633
0.445697128772735596 0.909090936183929443 0.640279054641723633
0.441674679517745972 0.909090936183929443 0.644230544567108154
0.441674679517745972 0.909090936183929443 0.648182094097137451
0.437652260065078735 0.909090936183929443 0.652133584022521973
0.574415028095245361 0.909090936183929443 0.802291452884674072
0.578437507152557373 0.909090936183929443 0.806242942810058594
0.590504765510559082 0.909090936183929443 0.806242942810058594
0.590504765510559082 0.909090936183929443 0.794388413429260254
0.582459926605224609 0.909090936183929443 0.786485373973846436
0.574415028095245361 0.909090936183929443 0.786485373973846436
0.477876603603363037 1 0.70350337028503418
0.485921472311019897 1 0.711406409740447998
0.485921472311019897 1 0.715357959270477295
0.493966341018676758 1 0.715357959270477295
0.497988790273666382 1 0.719309508800506592
0.502011239528656006 1 0.715357959270477295
0.510056078433990479 1 0.715357959270477295
0.530168235301971436 1 0.683745801448822021
0.534190714359283447 1 0.644230544567108154
0.514078497886657715 1 0.628424465656280518
0.473854184150695801 1 0.632376015186309814
0.46580931544303894 1 0.640279054641723633
