ply
format ascii 1.0
element vertex 772
property float x
property float y
property float z
end_header
0.407199949026107788 0.419999986886978149 0.813752591609954834
0.415097832679748535 0.419999986886978149 0.80585944652557373
0.415097832679748535 0.419999986886978149 0.790073156356811523
0.411148875951766968 0.419999986886978149 0.786126554012298584
0.387455254793167114 0.419999986886978149 0.786126554012298584
0.383506327867507935 0.419999986886978149 0.790073156356811523
0.399302065372467041 0.419999986886978149 0.655889630317687988
0.415097832679748535 0.419999986886978149 0.655889630317687988
0.415097832679748535 0.419999986886978149 0.636156797409057617
0.403250992298126221 0.419999986886978149 0.636156797409057617
0.403250992298126221 0.419999986886978149 0.640103340148925781
0.399302065372467041 0.419999986886978149 0.644049942493438721
0.407199949026107788 0.419999986886978149 0.628263652324676514
0.415097832679748535 0.419999986886978149 0.628263652324676514
0.411148875951766968 0.419999986886978149 0.612477362155914307
0.403250992298126221 0.419999986886978149 0.612477362155914307
0.462485074996948242 0.419999986886978149 0.628263652324676514
0.46643403172492981 0.419999986886978149 0.628263652324676514
0.470382958650588989 0.419999986886978149 0.632210195064544678
0.46643403172492981 0.419999986886978149 0.636156797409057617
0.462485074996948242 0.419999986886978149 0.636156797409057617
0.46643403172492981 0.419999986886978149 0.683515667915344238
0.462485074996948242 0.419999986886978149 0.687462210655212402
0.470382958650588989 0.419999986886978149 0.738767683506011963
0.474331885576248169 0.419999986886978149 0.742714285850524902
0.490127652883529663 0.419999986886978149 0.742714285850524902
0.494076579809188843 0.419999986886978149 0.738767683506011963
0.490127652883529663 0.419999986886978149 0.711141645908355713
0.494076579809188843 0.419999986886978149 0.707195103168487549
0.494076579809188843 0.419999986886978149 0.679569065570831299
0.50197446346282959 0.419999986886978149 0.671675920486450195
0.494076579809188843 0.419999986886978149 0.659836232662200928
0.490127652883529663 0.419999986886978149 0.62037050724029541
0.462485074996948242 0.419999986886978149 0.62037050724029541
0.363761633634567261 0.439999997615814209 0.355950057506561279
0.387455254793167114 0.439999997615814209 0.454614400863647461
0.419046759605407715 0.439999997615814209 0.494080126285552979
0.430893570184707642 0.439999997615814209 0.545385599136352539
0.438791453838348389 0.439999997615814209 0.533545851707458496
0.438791453838348389 0.439999997615814209 0.525652706623077393
0.482229769229888916 0.439999997615814209 0.482240408658981323
0.521719157695770264 0.439999997615814209 0.423041820526123047
0.545412778854370117 0.439999997615814209 0.348056912422180176
0.549361705780029297 0.439999997615814209 0.340163767337799072
0.569106400012969971 0.439999997615814209 0.324377477169036865
0.577004313468933105 0.439999997615814209 0.304644614458084106
0.588851094245910645 0.439999997615814209 0.288858324289321899
0.5928000807762146 0.439999997615814209 0.261232316493988037
0.604646861553192139 0.439999997615814209 0.249392583966255188
0.612544775009155273 0.439999997615814209 0.249392583966255188
0.624391555786132812 0.439999997615814209 0.233606293797492981
0.620442628860473633 0.439999997615814209 0.20992685854434967
0.644136250019073486 0.439999997615814209 0.190193995833396912
0.648085176944732666 0.439999997615814209 0.158621400594711304
0.636238396167755127 0.439999997615814209 0.1507282555103302
0.584902167320251465 0.439999997615814209 0.146781682968139648
0.577004313468933105 0.439999997615814209 0.1507282555103302
0.569106400012969971 0.439999997615814209 0.162567973136901855
0.569106400012969971 0.439999997615814209 0.170461118221282959
0.553310692310333252 0.439999997615814209 0.194140568375587463
0.545412778854370117 0.439999997615814209 0.194140568375587463
0.509872317314147949 0.439999997615814209 0.166514545679092407
0.46643403172492981 0.439999997615814209 0.166514545679092407
0.430893570184707642 0.439999997615814209 0.178354263305664062
0.415097832679748535 0.439999997615814209 0.194140568375587463
0.411148875951766968 0.439999997615814209 0.194140568375587463
0.411148875951766968 0.439999997615814209 0.198087140917778015
0.375608444213867188 0.439999997615814209 0.249392583966255188
0.363761633634567261 0.439999997615814209 0.316484332084655762
0.379557371139526367 0.439999997615814209 0.817699134349822998
0.387455254793167114 0.439999997615814209 0.817699134349822998
0.391404181718826294 0.439999997615814209 0.821645736694335938
0.395353138446807861 0.439999997615814209 0.817699134349822998
0.403250992298126221 0.439999997615814209 0.817699134349822998
0.407199949026107788 0.439999997615814209 0.813752591609954834
0.403250992298126221 0.439999997615814209 0.794019699096679688
0.383506327867507935 0.439999997615814209 0.794019699096679688
0.379557371139526367 0.439999997615814209 0.797966301441192627
0.46643403172492981 0.439999997615814209 0.703248500823974609
0.470382958650588989 0.439999997615814209 0.707195103168487549
0.474331885576248169 0.439999997615814209 0.703248500823974609
0.486178725957870483 0.439999997615814209 0.703248500823974609
0.490127652883529663 0.439999997615814209 0.699301958084106445
0.494076579809188843 0.439999997615814209 0.675622522830963135
0.474331885576248169 0.439999997615814209 0.671675920486450195
0.46643403172492981 0.439999997615814209 0.679569065570831299
0.470382958650588989 0.439999997615814209 0.742714285850524902
0.474331885576248169 0.439999997615814209 0.746660828590393066
0.482229769229888916 0.439999997615814209 0.746660828590393066
0.486178725957870483 0.439999997615814209 0.742714285850524902
0.486178725957870483 0.439999997615814209 0.730874538421630859
0.470382958650588989 0.439999997615814209 0.726927995681762695
0.46643403172492981 0.439999997615814209 0.730874538421630859
0.470382958650588989 0.439999997615814209 0.647996485233306885
0.482229769229888916 0.439999997615814209 0.647996485233306885
0.486178725957870483 0.439999997615814209 0.644049942493438721
0.486178725957870483 0.439999997615814209 0.636156797409057617
0.490127652883529663 0.439999997615814209 0.632210195064544678
0.482229769229888916 0.439999997615814209 0.624317049980163574
0.474331885576248169 0.439999997615814209 0.624317049980163574
0.474331885576248169 0.439999997615814209 0.628263652324676514
0.470382958650588989 0.439999997615814209 0.632210195064544678
0.359812676906585693 0.460000008344650269 0.387522667646408081
0.387455254793167114 0.460000008344650269 0.49802669882774353
0.415097832679748535 0.460000008344650269 0.533545851707458496
0.422995686531066895 0.460000008344650269 0.56906503438949585
0.426944643259048462 0.460000008344650269 0.573011636734008789
0.454587221145629883 0.460000008344650269 0.537492454051971436
0.458536148071289062 0.460000008344650269 0.537492454051971436
0.486178725957870483 0.460000008344650269 0.513813018798828125
0.490127652883529663 0.460000008344650269 0.501973271369934082
0.517770230770111084 0.460000008344650269 0.458560973405838013
0.541463851928710938 0.460000008344650269 0.367789804935455322
0.545412778854370117 0.460000008344650269 0.359896659851074219
0.553310692310333252 0.460000008344650269 0.352003484964370728
0.565157473087310791 0.460000008344650269 0.300698041915893555
0.600697934627532959 0.460000008344650269 0.249392583966255188
0.604646861553192139 0.460000008344650269 0.249392583966255188
0.616493701934814453 0.460000008344650269 0.233606293797492981
0.616493701934814453 0.460000008344650269 0.213873431086540222
0.632289469242095947 0.460000008344650269 0.198087140917778015
0.636238396167755127 0.460000008344650269 0.166514545679092407
0.624391555786132812 0.460000008344650269 0.158621400594711304
0.580953240394592285 0.460000008344650269 0.162567973136901855
0.565157473087310791 0.460000008344650269 0.18624742329120636
0.557259619235992432 0.460000008344650269 0.213873431086540222
0.549361705780029297 0.460000008344650269 0.221766576170921326
0.545412778854370117 0.460000008344650269 0.221766576170921326
0.517770230770111084 0.460000008344650269 0.190193995833396912
0.509872317314147949 0.460000008344650269 0.18624742329120636
0.482229769229888916 0.460000008344650269 0.182300850749015808
0.478280842304229736 0.460000008344650269 0.18624742329120636
0.426944643259048462 0.460000008344650269 0.202033713459968567
0.379557371139526367 0.460000008344650269 0.265178889036178589
0.359812676906585693 0.460000008344650269 0.348056912422180176
0.375608444213867188 0.460000008344650269 0.821645736694335938
0.375608444213867188 0.460000008344650269 0.825592279434204102
0.391404181718826294 0.460000008344650269 0.825592279434204102
0.395353138446807861 0.460000008344650269 0.821645736694335938
0.395353138446807861 0.460000008344650269 0.80585944652557373
0.391404181718826294 0.460000008344650269 0.801912844181060791
0.375608444213867188 0.460000008344650269 0.80585944652557373
0.375608444213867188 0.460000008344650269 0.809805989265441895
0.37165948748588562 0.460000008344650269 0.813752591609954834
0.46643403172492981 0.460000008344650269 0.695355355739593506
0.470382958650588989 0.460000008344650269 0.699301958084106445
0.482229769229888916 0.460000008344650269 0.699301958084106445
0.486178725957870483 0.460000008344650269 0.683515667915344238
0.482229769229888916 0.460000008344650269 0.679569065570831299
0.470382958650588989 0.460000008344650269 0.679569065570831299
0.46643403172492981 0.460000008344650269 0.683515667915344238
0.470382958650588989 0.460000008344650269 0.746660828590393066
0.478280842304229736 0.460000008344650269 0.746660828590393066
0.478280842304229736 0.460000008344650269 0.738767683506011963
0.474331885576248169 0.460000008344650269 0.738767683506011963
0.470382958650588989 0.460000008344650269 0.734821140766143799
0.355863749980926514 0.47999998927116394 0.419095247983932495
0.359812676906585693 0.47999998927116394 0.423041820526123047
0.375608444213867188 0.47999998927116394 0.517759561538696289
0.419046759605407715 0.47999998927116394 0.584851324558258057
0.419046759605407715 0.47999998927116394 0.5966910719871521
0.422995686531066895 0.47999998927116394 0.600637614727020264
0.426944643259048462 0.47999998927116394 0.600637614727020264
0.426944643259048462 0.47999998927116394 0.5966910719871521
0.454587221145629883 0.47999998927116394 0.56511843204498291
0.458536148071289062 0.47999998927116394 0.56511843204498291
0.494076579809188843 0.47999998927116394 0.533545851707458496
0.50197446346282959 0.47999998927116394 0.513813018798828125
0.509872317314147949 0.47999998927116394 0.505919873714447021
0.533565998077392578 0.47999998927116394 0.399362385272979736
0.537514925003051758 0.47999998927116394 0.395415812730789185
0.545412778854370117 0.47999998927116394 0.288858324289321899
0.529617011547088623 0.47999998927116394 0.241499438881874084
0.509872317314147949 0.47999998927116394 0.213873431086540222
0.50197446346282959 0.47999998927116394 0.20992685854434967
0.478280842304229736 0.47999998927116394 0.205980286002159119
0.474331885576248169 0.47999998927116394 0.20992685854434967
0.426944643259048462 0.47999998927116394 0.225713148713111877
0.375608444213867188 0.47999998927116394 0.296751469373703003
0.359812676906585693 0.47999998927116394 0.383576095104217529
0.355863749980926514 0.47999998927116394 0.387522667646408081
0.37165948748588562 0.47999998927116394 0.833485424518585205
0.379557371139526367 0.47999998927116394 0.833485424518585205
0.387455254793167114 0.47999998927116394 0.825592279434204102
0.387455254793167114 0.47999998927116394 0.821645736694335938
0.379557371139526367 0.47999998927116394 0.813752591609954834
0.375608444213867188 0.47999998927116394 0.817699134349822998
0.37165948748588562 0.47999998927116394 0.817699134349822998
0.37165948748588562 0.47999998927116394 0.821645736694335938
0.36771056056022644 0.47999998927116394 0.825592279434204102
0.5928000807762146 0.47999998927116394 0.217820003628730774
0.596749007701873779 0.47999998927116394 0.217820003628730774
0.596749007701873779 0.47999998927116394 0.213873431086540222
0.600697934627532959 0.47999998927116394 0.20992685854434967
0.604646861553192139 0.47999998927116394 0.213873431086540222
0.608595788478851318 0.47999998927116394 0.20992685854434967
0.608595788478851318 0.47999998927116394 0.202033713459968567
0.604646861553192139 0.47999998927116394 0.202033713459968567
0.584902167320251465 0.47999998927116394 0.221766576170921326
0.355863749980926514 0.5 0.442774683237075806
0.37165948748588562 0.5 0.545385599136352539
0.411148875951766968 0.5 0.5966910719871521
0.415097832679748535 0.5 0.624317049980163574
0.419046759605407715 0.5 0.628263652324676514
0.422995686531066895 0.5 0.628263652324676514
0.450638264417648315 0.5 0.588797926902770996
0.470382958650588989 0.5 0.580904781818389893
0.509872317314147949 0.5 0.525652706623077393
0.533565998077392578 0.5 0.40725553035736084
0.529617011547088623 0.5 0.403308957815170288
0.533565998077392578 0.5 0.399362385272979736
0.533565998077392578 0.5 0.355950057506561279
0.533565998077392578 0.5 0.316484332084655762
0.509872317314147949 0.5 0.253339171409606934
0.50592339038848877 0.5 0.249392583966255188
0.50592339038848877 0.5 0.245446011424064636
0.46643403172492981 0.5 0.237552866339683533
0.462485074996948242 0.5 0.241499438881874084
0.430893570184707642 0.5 0.249392583966255188
0.37165948748588562 0.5 0.332270622253417969
0.355863749980926514 0.5 0.403308957815170288
0.375608444213867188 0.5 0.841378569602966309
0.375608444213867188 0.5 0.833485424518585205
0.37165948748588562 0.5 0.829538881778717041
0.37165948748588562 0.5 0.833485424518585205
0.36771056056022644 0.5 0.837432026863098145
0.355863749980926514 0.519999980926513672 0.454614400863647461
0.355863749980926514 0.519999980926513672 0.494080126285552979
0.37165948748588562 0.519999980926513672 0.573011636734008789
0.415097832679748535 0.519999980926513672 0.62037050724029541
0.419046759605407715 0.519999980926513672 0.640103340148925781
0.422995686531066895 0.519999980926513672 0.640103340148925781
0.446689337491989136 0.519999980926513672 0.608530759811401367
0.46643403172492981 0.519999980926513672 0.600637614727020264
0.49802553653717041 0.519999980926513672 0.573011636734008789
0.521719157695770264 0.519999980926513672 0.466454118490219116
0.525668084621429443 0.519999980926513672 0.462507545948028564
0.525668084621429443 0.519999980926513672 0.419095247983932495
0.525668084621429443 0.519999980926513672 0.379629522562026978
0.50592339038848877 0.519999980926513672 0.304644614458084106
0.486178725957870483 0.519999980926513672 0.280965179204940796
0.454587221145629883 0.519999980926513672 0.273072034120559692
0.450638264417648315 0.519999980926513672 0.277018606662750244
0.434842526912689209 0.519999980926513672 0.280965179204940796
0.395353138446807861 0.519999980926513672 0.316484332084655762
0.395353138446807861 0.519999980926513672 0.324377477169036865
0.387455254793167114 0.519999980926513672 0.332270622253417969
0.387455254793167114 0.519999980926513672 0.340163767337799072
0.36771056056022644 0.519999980926513672 0.371736377477645874
0.355863749980926514 0.519999980926513672 0.415148675441741943
0.351914793252944946 0.540000021457672119 0.517759561538696289
0.37165948748588562 0.540000021457672119 0.5966910719871521
0.407199949026107788 0.540000021457672119 0.628263652324676514
0.407199949026107788 0.540000021457672119 0.632210195064544678
0.419046759605407715 0.540000021457672119 0.647996485233306885
0.422995686531066895 0.540000021457672119 0.647996485233306885
0.438791453838348389 0.540000021457672119 0.628263652324676514
0.46643403172492981 0.540000021457672119 0.616423904895782471
0.49802553653717041 0.540000021457672119 0.588797926902770996
0.517770230770111084 0.540000021457672119 0.470400691032409668
0.517770230770111084 0.540000021457672119 0.43093496561050415
0.49802553653717041 0.540000021457672119 0.352003484964370728
0.486178725957870483 0.540000021457672119 0.336217194795608521
0.486178725957870483 0.540000021457672119 0.328324049711227417
0.46643403172492981 0.540000021457672119 0.316484332084655762
0.426944643259048462 0.540000021457672119 0.324377477169036865
0.407199949026107788 0.540000021457672119 0.340163767337799072
0.407199949026107788 0.540000021457672119 0.344110339879989624
0.36771056056022644 0.540000021457672119 0.40725553035736084
0.351914793252944946 0.540000021457672119 0.478293836116790771
0.351914793252944946 0.560000002384185791 0.537492454051971436
0.359812676906585693 0.560000002384185791 0.59274446964263916
0.411148875951766968 0.560000002384185791 0.647996485233306885
0.411148875951766968 0.560000002384185791 0.655889630317687988
0.419046759605407715 0.560000002384185791 0.663782775402069092
0.426944643259048462 0.560000002384185791 0.663782775402069092
0.426944643259048462 0.560000002384185791 0.655889630317687988
0.446689337491989136 0.560000002384185791 0.636156797409057617
0.470382958650588989 0.560000002384185791 0.628263652324676514
0.50592339038848877 0.560000002384185791 0.580904781818389893
0.513821303844451904 0.560000002384185791 0.490133553743362427
0.509872317314147949 0.560000002384185791 0.486186981201171875
0.486178725957870483 0.560000002384185791 0.40725553035736084
0.482229769229888916 0.560000002384185791 0.403308957815170288
0.478280842304229736 0.560000002384185791 0.387522667646408081
0.450638264417648315 0.560000002384185791 0.363843232393264771
0.426944643259048462 0.560000002384185791 0.367789804935455322
0.363761633634567261 0.560000002384185791 0.450667828321456909
0.351914793252944946 0.560000002384185791 0.49802669882774353
0.541463851928710938 0.560000002384185791 0.18624742329120636
0.545412778854370117 0.560000002384185791 0.182300850749015808
0.545412778854370117 0.560000002384185791 0.174407690763473511
0.541463851928710938 0.560000002384185791 0.170461118221282959
0.537514925003051758 0.560000002384185791 0.170461118221282959
0.580953240394592285 0.560000002384185791 0.202033713459968567
0.584902167320251465 0.560000002384185791 0.205980286002159119
0.600697934627532959 0.560000002384185791 0.202033713459968567
0.604646861553192139 0.560000002384185791 0.18624742329120636
0.608595788478851318 0.560000002384185791 0.182300850749015808
0.5928000807762146 0.560000002384185791 0.166514545679092407
0.584902167320251465 0.560000002384185791 0.166514545679092407
0.580953240394592285 0.560000002384185791 0.170461118221282959
0.636238396167755127 0.560000002384185791 0.194140568375587463
0.644136250019073486 0.560000002384185791 0.18624742329120636
0.648085176944732666 0.560000002384185791 0.170461118221282959
0.644136250019073486 0.560000002384185791 0.166514545679092407
0.628340482711791992 0.560000002384185791 0.170461118221282959
0.628340482711791992 0.560000002384185791 0.174407690763473511
0.624391555786132812 0.560000002384185791 0.178354263305664062
0.351914793252944946 0.579999983310699463 0.557225286960601807
0.363761633634567261 0.579999983310699463 0.612477362155914307
0.411148875951766968 0.579999983310699463 0.655889630317687988
0.415097832679748535 0.579999983310699463 0.663782775402069092
0.415097832679748535 0.579999983310699463 0.667729377746582031
0.419046759605407715 0.579999983310699463 0.667729377746582031
0.430893570184707642 0.579999983310699463 0.651943087577819824
0.438791453838348389 0.579999983310699463 0.647996485233306885
0.46643403172492981 0.579999983310699463 0.640103340148925781
0.482229769229888916 0.579999983310699463 0.628263652324676514
0.482229769229888916 0.579999983310699463 0.624317049980163574
0.49802553653717041 0.579999983310699463 0.604584217071533203
0.509872317314147949 0.579999983310699463 0.521706163883209229
0.50197446346282959 0.579999983310699463 0.494080126285552979
0.458536148071289062 0.579999983310699463 0.43093496561050415
0.426944643259048462 0.579999983310699463 0.419095247983932495
0.422995686531066895 0.579999983310699463 0.423041820526123047
0.407199949026107788 0.579999983310699463 0.426988393068313599
0.359812676906585693 0.579999983310699463 0.490133553743362427
0.351914793252944946 0.579999983310699463 0.517759561538696289
0.541463851928710938 0.579999983310699463 0.205980286002159119
0.545412778854370117 0.579999983310699463 0.20992685854434967
0.573055386543273926 0.579999983310699463 0.202033713459968567
0.577004313468933105 0.579999983310699463 0.205980286002159119
0.596749007701873779 0.579999983310699463 0.205980286002159119
0.604646861553192139 0.579999983310699463 0.198087140917778015
0.640187323093414307 0.579999983310699463 0.202033713459968567
0.652034103870391846 0.579999983310699463 0.190193995833396912
0.652034103870391846 0.579999983310699463 0.170461118221282959
0.612544775009155273 0.579999983310699463 0.174407690763473511
0.608595788478851318 0.579999983310699463 0.170461118221282959
0.604646861553192139 0.579999983310699463 0.174407690763473511
0.600697934627532959 0.579999983310699463 0.170461118221282959
0.557259619235992432 0.579999983310699463 0.182300850749015808
0.553310692310333252 0.579999983310699463 0.178354263305664062
0.537514925003051758 0.579999983310699463 0.178354263305664062
0.351914793252944946 0.60000002384185791 0.573011636734008789
0.355863749980926514 0.60000002384185791 0.612477362155914307
0.383506327867507935 0.60000002384185791 0.644049942493438721
0.387455254793167114 0.60000002384185791 0.644049942493438721
0.411148875951766968 0.60000002384185791 0.663782775402069092
0.411148875951766968 0.60000002384185791 0.675622522830963135
0.415097832679748535 0.60000002384185791 0.679569065570831299
0.419046759605407715 0.60000002384185791 0.679569065570831299
0.426944643259048462 0.60000002384185791 0.671675920486450195
0.426944643259048462 0.60000002384185791 0.663782775402069092
0.446689337491989136 0.60000002384185791 0.651943087577819824
0.46643403172492981 0.60000002384185791 0.647996485233306885
0.478280842304229736 0.60000002384185791 0.636156797409057617
0.482229769229888916 0.60000002384185791 0.636156797409057617
0.482229769229888916 0.60000002384185791 0.632210195064544678
0.50197446346282959 0.60000002384185791 0.604584217071533203
0.509872317314147949 0.60000002384185791 0.545385599136352539
0.50592339038848877 0.60000002384185791 0.5414389967918396
0.50197446346282959 0.60000002384185791 0.521706163883209229
0.46643403172492981 0.60000002384185791 0.478293836116790771
0.462485074996948242 0.60000002384185791 0.478293836116790771
0.430893570184707642 0.60000002384185791 0.458560973405838013
0.403250992298126221 0.60000002384185791 0.462507545948028564
0.383506327867507935 0.60000002384185791 0.478293836116790771
0.383506327867507935 0.60000002384185791 0.482240408658981323
0.355863749980926514 0.60000002384185791 0.521706163883209229
0.355863749980926514 0.60000002384185791 0.529599308967590332
0.351914793252944946 0.60000002384185791 0.533545851707458496
0.403250992298126221 0.60000002384185791 0.31253775954246521
0.430893570184707642 0.60000002384185791 0.336217194795608521
0.442740380764007568 0.60000002384185791 0.336217194795608521
0.470382958650588989 0.60000002384185791 0.304644614458084106
0.478280842304229736 0.60000002384185791 0.273072034120559692
0.482229769229888916 0.60000002384185791 0.269125461578369141
0.490127652883529663 0.60000002384185791 0.269125461578369141
0.478280842304229736 0.60000002384185791 0.205980286002159119
0.470382958650588989 0.60000002384185791 0.198087140917778015
0.470382958650588989 0.60000002384185791 0.194140568375587463
0.446689337491989136 0.60000002384185791 0.190193995833396912
0.442740380764007568 0.60000002384185791 0.194140568375587463
0.419046759605407715 0.60000002384185791 0.202033713459968567
0.395353138446807861 0.60000002384185791 0.237552866339683533
0.395353138446807861 0.60000002384185791 0.245446011424064636
0.391404181718826294 0.60000002384185791 0.249392583966255188
0.509872317314147949 0.60000002384185791 0.269125461578369141
0.513821303844451904 0.60000002384185791 0.265178889036178589
0.525668084621429443 0.60000002384185791 0.265178889036178589
0.533565998077392578 0.60000002384185791 0.253339171409606934
0.537514925003051758 0.60000002384185791 0.237552866339683533
0.521719157695770264 0.60000002384185791 0.233606293797492981
0.513821303844451904 0.60000002384185791 0.237552866339683533
0.509872317314147949 0.60000002384185791 0.241499438881874084
0.537514925003051758 0.60000002384185791 0.213873431086540222
0.541463851928710938 0.60000002384185791 0.20992685854434967
0.616493701934814453 0.60000002384185791 0.194140568375587463
0.620442628860473633 0.60000002384185791 0.198087140917778015
0.636238396167755127 0.60000002384185791 0.198087140917778015
0.644136250019073486 0.60000002384185791 0.190193995833396912
0.644136250019073486 0.60000002384185791 0.174407690763473511
0.612544775009155273 0.60000002384185791 0.170461118221282959
0.608595788478851318 0.60000002384185791 0.174407690763473511
0.541463851928710938 0.60000002384185791 0.182300850749015808
0.541463851928710938 0.60000002384185791 0.18624742329120636
0.537514925003051758 0.60000002384185791 0.190193995833396912
0.33611905574798584 0.620000004768371582 0.249392583966255188
0.34006798267364502 0.620000004768371582 0.249392583966255188
0.344016939401626587 0.620000004768371582 0.245446011424064636
0.347965866327285767 0.620000004768371582 0.249392583966255188
0.347965866327285767 0.620000004768371582 0.245446011424064636
0.344016939401626587 0.620000004768371582 0.241499438881874084
0.332170099020004272 0.620000004768371582 0.241499438881874084
0.355863749980926514 0.620000004768371582 0.62037050724029541
0.37165948748588562 0.620000004768371582 0.640103340148925781
0.375608444213867188 0.620000004768371582 0.640103340148925781
0.407199949026107788 0.620000004768371582 0.663782775402069092
0.411148875951766968 0.620000004768371582 0.675622522830963135
0.415097832679748535 0.620000004768371582 0.679569065570831299
0.419046759605407715 0.620000004768371582 0.679569065570831299
0.430893570184707642 0.620000004768371582 0.663782775402069092
0.478280842304229736 0.620000004768371582 0.644049942493438721
0.49802553653717041 0.620000004768371582 0.62037050724029541
0.50592339038848877 0.620000004768371582 0.549332141876220703
0.50197446346282959 0.620000004768371582 0.5414389967918396
0.470382958650588989 0.620000004768371582 0.501973271369934082
0.407199949026107788 0.620000004768371582 0.486186981201171875
0.403250992298126221 0.620000004768371582 0.490133553743362427
0.395353138446807861 0.620000004768371582 0.490133553743362427
0.355863749980926514 0.620000004768371582 0.537492454051971436
0.347965866327285767 0.620000004768371582 0.573011636734008789
0.379557371139526367 0.620000004768371582 0.336217194795608521
0.422995686531066895 0.620000004768371582 0.367789804935455322
0.450638264417648315 0.620000004768371582 0.363843232393264771
0.50197446346282959 0.620000004768371582 0.288858324289321899
0.50592339038848877 0.620000004768371582 0.288858324289321899
0.509872317314147949 0.620000004768371582 0.284911751747131348
0.513821303844451904 0.620000004768371582 0.288858324289321899
0.549361705780029297 0.620000004768371582 0.288858324289321899
0.557259619235992432 0.620000004768371582 0.280965179204940796
0.561208546161651611 0.620000004768371582 0.280965179204940796
0.561208546161651611 0.620000004768371582 0.277018606662750244
0.573055386543273926 0.620000004768371582 0.261232316493988037
0.565157473087310791 0.620000004768371582 0.20992685854434967
0.584902167320251465 0.620000004768371582 0.198087140917778015
0.628340482711791992 0.620000004768371582 0.198087140917778015
0.636238396167755127 0.620000004768371582 0.190193995833396912
0.636238396167755127 0.620000004768371582 0.170461118221282959
0.632289469242095947 0.620000004768371582 0.166514545679092407
0.557259619235992432 0.620000004768371582 0.182300850749015808
0.557259619235992432 0.620000004768371582 0.190193995833396912
0.537514925003051758 0.620000004768371582 0.202033713459968567
0.517770230770111084 0.620000004768371582 0.198087140917778015
0.482229769229888916 0.620000004768371582 0.166514545679092407
0.462485074996948242 0.620000004768371582 0.166514545679092407
0.458536148071289062 0.620000004768371582 0.162567973136901855
0.454587221145629883 0.620000004768371582 0.166514545679092407
0.422995686531066895 0.620000004768371582 0.174407690763473511
0.395353138446807861 0.620000004768371582 0.198087140917778015
0.395353138446807861 0.620000004768371582 0.202033713459968567
0.379557371139526367 0.620000004768371582 0.221766576170921326
0.36771056056022644 0.620000004768371582 0.265178889036178589
0.296629667282104492 0.639999985694885254 0.20992685854434967
0.308476477861404419 0.639999985694885254 0.20992685854434967
0.308476477861404419 0.639999985694885254 0.205980286002159119
0.300578594207763672 0.639999985694885254 0.198087140917778015
0.296629667282104492 0.639999985694885254 0.198087140917778015
0.328221172094345093 0.639999985694885254 0.257285743951797485
0.355863749980926514 0.639999985694885254 0.257285743951797485
0.359812676906585693 0.639999985694885254 0.261232316493988037
0.359812676906585693 0.639999985694885254 0.304644614458084106
0.375608444213867188 0.639999985694885254 0.363843232393264771
0.426944643259048462 0.639999985694885254 0.399362385272979736
0.450638264417648315 0.639999985694885254 0.395415812730789185
0.470382958650588989 0.639999985694885254 0.379629522562026978
0.470382958650588989 0.639999985694885254 0.375682950019836426
0.486178725957870483 0.639999985694885254 0.352003484964370728
0.50197446346282959 0.639999985694885254 0.308591187000274658
0.513821303844451904 0.639999985694885254 0.296751469373703003
0.565157473087310791 0.639999985694885254 0.304644614458084106
0.569106400012969971 0.639999985694885254 0.300698041915893555
0.577004313468933105 0.639999985694885254 0.300698041915893555
0.5928000807762146 0.639999985694885254 0.277018606662750244
0.573055386543273926 0.639999985694885254 0.205980286002159119
0.584902167320251465 0.639999985694885254 0.198087140917778015
0.628340482711791992 0.639999985694885254 0.190193995833396912
0.632289469242095947 0.639999985694885254 0.170461118221282959
0.628340482711791992 0.639999985694885254 0.166514545679092407
0.628340482711791992 0.639999985694885254 0.162567973136901855
0.565157473087310791 0.639999985694885254 0.178354263305664062
0.561208546161651611 0.639999985694885254 0.194140568375587463
0.557259619235992432 0.639999985694885254 0.198087140917778015
0.545412778854370117 0.639999985694885254 0.194140568375587463
0.513821303844451904 0.639999985694885254 0.154674828052520752
0.462485074996948242 0.639999985694885254 0.146781682968139648
0.458536148071289062 0.639999985694885254 0.1507282555103302
0.411148875951766968 0.639999985694885254 0.166514545679092407
0.359812676906585693 0.639999985694885254 0.241499438881874084
0.347965866327285767 0.639999985694885254 0.241499438881874084
0.34006798267364502 0.639999985694885254 0.233606293797492981
0.332170099020004272 0.639999985694885254 0.233606293797492981
0.328221172094345093 0.639999985694885254 0.237552866339683533
0.351914793252944946 0.639999985694885254 0.600637614727020264
0.355863749980926514 0.639999985694885254 0.624317049980163574
0.407199949026107788 0.639999985694885254 0.663782775402069092
0.411148875951766968 0.639999985694885254 0.671675920486450195
0.411148875951766968 0.639999985694885254 0.679569065570831299
0.415097832679748535 0.639999985694885254 0.683515667915344238
0.419046759605407715 0.639999985694885254 0.683515667915344238
0.438791453838348389 0.639999985694885254 0.659836232662200928
0.470382958650588989 0.639999985694885254 0.651943087577819824
0.494076579809188843 0.639999985694885254 0.632210195064544678
0.50592339038848877 0.639999985694885254 0.561171889305114746
0.50197446346282959 0.639999985694885254 0.557225286960601807
0.49802553653717041 0.639999985694885254 0.5414389967918396
0.478280842304229736 0.639999985694885254 0.521706163883209229
0.478280842304229736 0.639999985694885254 0.517759561538696289
0.474331885576248169 0.639999985694885254 0.517759561538696289
0.458536148071289062 0.639999985694885254 0.505919873714447021
0.407199949026107788 0.639999985694885254 0.49802669882774353
0.359812676906585693 0.639999985694885254 0.537492454051971436
0.355863749980926514 0.639999985694885254 0.545385599136352539
0.347965866327285767 0.639999985694885254 0.59274446964263916
0.292680740356445312 0.660000026226043701 0.221766576170921326
0.296629667282104492 0.660000026226043701 0.225713148713111877
0.308476477861404419 0.660000026226043701 0.225713148713111877
0.316374361515045166 0.660000026226043701 0.233606293797492981
0.320323288440704346 0.660000026226043701 0.265178889036178589
0.347965866327285767 0.660000026226043701 0.261232316493988037
0.355863749980926514 0.660000026226043701 0.269125461578369141
0.351914793252944946 0.660000026226043701 0.320430904626846313
0.355863749980926514 0.660000026226043701 0.324377477169036865
0.375608444213867188 0.660000026226043701 0.391469240188598633
0.426944643259048462 0.660000026226043701 0.43093496561050415
0.458536148071289062 0.660000026226043701 0.423041820526123047
0.486178725957870483 0.660000026226043701 0.387522667646408081
0.513821303844451904 0.660000026226043701 0.304644614458084106
0.521719157695770264 0.660000026226043701 0.296751469373703003
0.588851094245910645 0.660000026226043701 0.316484332084655762
0.596749007701873779 0.660000026226043701 0.308591187000274658
0.600697934627532959 0.660000026226043701 0.308591187000274658
0.608595788478851318 0.660000026226043701 0.273072034120559692
0.604646861553192139 0.660000026226043701 0.269125461578369141
0.588851094245910645 0.660000026226043701 0.225713148713111877
0.584902167320251465 0.660000026226043701 0.221766576170921326
0.588851094245910645 0.660000026226043701 0.217820003628730774
0.624391555786132812 0.660000026226043701 0.213873431086540222
0.632289469242095947 0.660000026226043701 0.166514545679092407
0.628340482711791992 0.660000026226043701 0.162567973136901855
0.620442628860473633 0.660000026226043701 0.162567973136901855
0.616493701934814453 0.660000026226043701 0.158621400594711304
0.612544775009155273 0.660000026226043701 0.162567973136901855
0.561208546161651611 0.660000026226043701 0.174407690763473511
0.529617011547088623 0.660000026226043701 0.146781682968139648
0.470382958650588989 0.660000026226043701 0.1507282555103302
0.46643403172492981 0.660000026226043701 0.146781682968139648
0.411148875951766968 0.660000026226043701 0.158621400594711304
0.359812676906585693 0.660000026226043701 0.225713148713111877
0.328221172094345093 0.660000026226043701 0.217820003628730774
0.308476477861404419 0.660000026226043701 0.198087140917778015
0.300578594207763672 0.660000026226043701 0.198087140917778015
0.296629667282104492 0.660000026226043701 0.202033713459968567
0.296629667282104492 0.660000026226043701 0.205980286002159119
0.292680740356445312 0.660000026226043701 0.20992685854434967
0.355863749980926514 0.660000026226043701 0.624317049980163574
0.37165948748588562 0.660000026226043701 0.640103340148925781
0.37165948748588562 0.660000026226043701 0.644049942493438721
0.375608444213867188 0.660000026226043701 0.644049942493438721
0.407199949026107788 0.660000026226043701 0.667729377746582031
0.411148875951766968 0.660000026226043701 0.675622522830963135
0.411148875951766968 0.660000026226043701 0.679569065570831299
0.415097832679748535 0.660000026226043701 0.679569065570831299
0.419046759605407715 0.660000026226043701 0.683515667915344238
0.422995686531066895 0.660000026226043701 0.679569065570831299
0.426944643259048462 0.660000026226043701 0.679569065570831299
0.426944643259048462 0.660000026226043701 0.675622522830963135
0.442740380764007568 0.660000026226043701 0.659836232662200928
0.478280842304229736 0.660000026226043701 0.647996485233306885
0.50592339038848877 0.660000026226043701 0.608530759811401367
0.50592339038848877 0.660000026226043701 0.56511843204498291
0.50197446346282959 0.660000026226043701 0.549332141876220703
0.470382958650588989 0.660000026226043701 0.513813018798828125
0.419046759605407715 0.660000026226043701 0.49802669882774353
0.407199949026107788 0.660000026226043701 0.505919873714447021
0.399302065372467041 0.660000026226043701 0.505919873714447021
0.363761633634567261 0.660000026226043701 0.537492454051971436
0.347965866327285767 0.660000026226043701 0.584851324558258057
0.284782856702804565 0.680000007152557373 0.166514545679092407
0.288731783628463745 0.680000007152557373 0.162567973136901855
0.296629667282104492 0.680000007152557373 0.162567973136901855
0.284782856702804565 0.680000007152557373 0.154674828052520752
0.280833899974822998 0.680000007152557373 0.154674828052520752
0.292680740356445312 0.680000007152557373 0.225713148713111877
0.296629667282104492 0.680000007152557373 0.229659721255302429
0.316374361515045166 0.680000007152557373 0.233606293797492981
0.324272245168685913 0.680000007152557373 0.241499438881874084
0.324272245168685913 0.680000007152557373 0.249392583966255188
0.332170099020004272 0.680000007152557373 0.257285743951797485
0.351914793252944946 0.680000007152557373 0.261232316493988037
0.355863749980926514 0.680000007152557373 0.265178889036178589
0.351914793252944946 0.680000007152557373 0.352003484964370728
0.355863749980926514 0.680000007152557373 0.355950057506561279
0.375608444213867188 0.680000007152557373 0.419095247983932495
0.419046759605407715 0.680000007152557373 0.47434726357460022
0.355863749980926514 0.680000007152557373 0.553278744220733643
0.351914793252944946 0.680000007152557373 0.612477362155914307
0.36771056056022644 0.680000007152557373 0.640103340148925781
0.37165948748588562 0.680000007152557373 0.640103340148925781
0.411148875951766968 0.680000007152557373 0.671675920486450195
0.411148875951766968 0.680000007152557373 0.675622522830963135
0.415097832679748535 0.680000007152557373 0.679569065570831299
0.422995686531066895 0.680000007152557373 0.679569065570831299
0.438791453838348389 0.680000007152557373 0.659836232662200928
0.482229769229888916 0.680000007152557373 0.644049942493438721
0.50592339038848877 0.680000007152557373 0.608530759811401367
0.50592339038848877 0.680000007152557373 0.56511843204498291
0.49802553653717041 0.680000007152557373 0.5414389967918396
0.470382958650588989 0.680000007152557373 0.505919873714447021
0.470382958650588989 0.680000007152557373 0.501973271369934082
0.46643403172492981 0.680000007152557373 0.501973271369934082
0.446689337491989136 0.680000007152557373 0.478293836116790771
0.446689337491989136 0.680000007152557373 0.47434726357460022
0.482229769229888916 0.680000007152557373 0.442774683237075806
0.486178725957870483 0.680000007152557373 0.434881538152694702
0.509872317314147949 0.680000007152557373 0.316484332084655762
0.529617011547088623 0.680000007152557373 0.288858324289321899
0.541463851928710938 0.680000007152557373 0.292804896831512451
0.588851094245910645 0.680000007152557373 0.328324049711227417
0.608595788478851318 0.680000007152557373 0.328324049711227417
0.624391555786132812 0.680000007152557373 0.308591187000274658
0.620442628860473633 0.680000007152557373 0.304644614458084106
0.620442628860473633 0.680000007152557373 0.280965179204940796
0.632289469242095947 0.680000007152557373 0.269125461578369141
0.640187323093414307 0.680000007152557373 0.269125461578369141
0.644136250019073486 0.680000007152557373 0.229659721255302429
0.640187323093414307 0.680000007152557373 0.225713148713111877
0.632289469242095947 0.680000007152557373 0.194140568375587463
0.640187323093414307 0.680000007152557373 0.182300850749015808
0.640187323093414307 0.680000007152557373 0.174407690763473511
0.644136250019073486 0.680000007152557373 0.170461118221282959
0.640187323093414307 0.680000007152557373 0.166514545679092407
0.640187323093414307 0.680000007152557373 0.162567973136901855
0.620442628860473633 0.680000007152557373 0.158621400594711304
0.616493701934814453 0.680000007152557373 0.162567973136901855
0.608595788478851318 0.680000007152557373 0.162567973136901855
0.596749007701873779 0.680000007152557373 0.174407690763473511
0.577004313468933105 0.680000007152557373 0.170461118221282959
0.549361705780029297 0.680000007152557373 0.146781682968139648
0.478280842304229736 0.680000007152557373 0.158621400594711304
0.474331885576248169 0.680000007152557373 0.154674828052520752
0.426944643259048462 0.680000007152557373 0.146781682968139648
0.407199949026107788 0.680000007152557373 0.158621400594711304
0.407199949026107788 0.680000007152557373 0.162567973136901855
0.363761633634567261 0.680000007152557373 0.217820003628730774
0.344016939401626587 0.680000007152557373 0.213873431086540222
0.308476477861404419 0.680000007152557373 0.190193995833396912
0.304527550935745239 0.680000007152557373 0.190193995833396912
0.292680740356445312 0.680000007152557373 0.205980286002159119
0.276884973049163818 0.699999988079071045 0.174407690763473511
0.284782856702804565 0.699999988079071045 0.198087140917778015
0.300578594207763672 0.699999988079071045 0.202033713459968567
0.316374361515045166 0.699999988079071045 0.221766576170921326
0.316374361515045166 0.699999988079071045 0.225713148713111877
0.328221172094345093 0.699999988079071045 0.229659721255302429
0.344016939401626587 0.699999988079071045 0.249392583966255188
0.347965866327285767 0.699999988079071045 0.249392583966255188
0.355863749980926514 0.699999988079071045 0.257285743951797485
0.351914793252944946 0.699999988079071045 0.296751469373703003
0.355863749980926514 0.699999988079071045 0.300698041915893555
0.351914793252944946 0.699999988079071045 0.375682950019836426
0.355863749980926514 0.699999988079071045 0.379629522562026978
0.375608444213867188 0.699999988079071045 0.49802669882774353
0.351914793252944946 0.699999988079071045 0.600637614727020264
0.355863749980926514 0.699999988079071045 0.604584217071533203
0.359812676906585693 0.699999988079071045 0.624317049980163574
0.37165948748588562 0.699999988079071045 0.640103340148925781
0.375608444213867188 0.699999988079071045 0.640103340148925781
0.411148875951766968 0.699999988079071045 0.671675920486450195
0.411148875951766968 0.699999988079071045 0.675622522830963135
0.415097832679748535 0.699999988079071045 0.679569065570831299
0.426944643259048462 0.699999988079071045 0.679569065570831299
0.438791453838348389 0.699999988079071045 0.659836232662200928
0.462485074996948242 0.699999988079071045 0.651943087577819824
0.49802553653717041 0.699999988079071045 0.624317049980163574
0.50197446346282959 0.699999988079071045 0.616423904895782471
0.509872317314147949 0.699999988079071045 0.557225286960601807
0.50592339038848877 0.699999988079071045 0.553278744220733643
0.490127652883529663 0.699999988079071045 0.482240408658981323
0.494076579809188843 0.699999988079071045 0.478293836116790771
0.494076579809188843 0.699999988079071045 0.470400691032409668
0.50197446346282959 0.699999988079071045 0.462507545948028564
0.509872317314147949 0.699999988079071045 0.462507545948028564
0.509872317314147949 0.699999988079071045 0.419095247983932495
0.509872317314147949 0.699999988079071045 0.379629522562026978
0.509872317314147949 0.699999988079071045 0.340163767337799072
0.513821303844451904 0.699999988079071045 0.300698041915893555
0.549361705780029297 0.699999988079071045 0.269125461578369141
0.553310692310333252 0.699999988079071045 0.269125461578369141
0.561208546161651611 0.699999988079071045 0.277018606662750244
0.561208546161651611 0.699999988079071045 0.320430904626846313
0.561208546161651611 0.699999988079071045 0.359896659851074219
0.561208546161651611 0.699999988079071045 0.399362385272979736
0.561208546161651611 0.699999988079071045 0.411202102899551392
0.565157473087310791 0.699999988079071045 0.415148675441741943
0.561208546161651611 0.699999988079071045 0.419095247983932495
0.561208546161651611 0.699999988079071045 0.458560973405838013
0.573055386543273926 0.699999988079071045 0.442774683237075806
0.584902167320251465 0.699999988079071045 0.403308957815170288
0.580953240394592285 0.699999988079071045 0.403308957815170288
0.577004313468933105 0.699999988079071045 0.399362385272979736
0.584902167320251465 0.699999988079071045 0.340163767337799072
0.588851094245910645 0.699999988079071045 0.336217194795608521
0.596749007701873779 0.699999988079071045 0.348056912422180176
0.596749007701873779 0.699999988079071045 0.391469240188598633
0.604646861553192139 0.699999988079071045 0.399362385272979736
0.612544775009155273 0.699999988079071045 0.399362385272979736
0.616493701934814453 0.699999988079071045 0.403308957815170288
0.624391555786132812 0.699999988079071045 0.395415812730789185
0.632289469242095947 0.699999988079071045 0.363843232393264771
0.628340482711791992 0.699999988079071045 0.359896659851074219
0.628340482711791992 0.699999988079071045 0.344110339879989624
0.636238396167755127 0.699999988079071045 0.336217194795608521
0.652034103870391846 0.699999988079071045 0.332270622253417969
0.65993201732635498 0.699999988079071045 0.320430904626846313
0.655983090400695801 0.699999988079071045 0.316484332084655762
0.66388094425201416 0.699999988079071045 0.273072034120559692
0.65993201732635498 0.699999988079071045 0.269125461578369141
0.644136250019073486 0.699999988079071045 0.225713148713111877
0.628340482711791992 0.699999988079071045 0.20992685854434967
0.608595788478851318 0.699999988079071045 0.217820003628730774
0.600697934627532959 0.699999988079071045 0.205980286002159119
0.5928000807762146 0.699999988079071045 0.174407690763473511
0.573055386543273926 0.699999988079071045 0.1507282555103302
0.565157473087310791 0.699999988079071045 0.146781682968139648
0.549361705780029297 0.699999988079071045 0.1507282555103302
0.549361705780029297 0.699999988079071045 0.154674828052520752
0.541463851928710938 0.699999988079071045 0.162567973136901855
0.50592339038848877 0.699999988079071045 0.154674828052520752
0.49802553653717041 0.699999988079071045 0.162567973136901855
0.430893570184707642 0.699999988079071045 0.146781682968139648
0.422995686531066895 0.699999988079071045 0.1507282555103302
0.37165948748588562 0.699999988079071045 0.20992685854434967
0.355863749980926514 0.699999988079071045 0.20992685854434967
0.292680740356445312 0.699999988079071045 0.162567973136901855
0.288731783628463745 0.699999988079071045 0.166514545679092407
0.280833899974822998 0.699999988079071045 0.166514545679092407
0.644136250019073486 0.699999988079071045 0.174407690763473511
0.655983090400695801 0.699999988079071045 0.166514545679092407
0.655983090400695801 0.699999988079071045 0.158621400594711304
0.644136250019073486 0.699999988079071045 0.158621400594711304
0.640187323093414307 0.699999988079071045 0.162567973136901855
0.640187323093414307 0.699999988079071045 0.166514545679092407
0.636238396167755127 0.699999988079071045 0.170461118221282959
0.292680740356445312 0.720000028610229492 0.194140568375587463
0.332170099020004272 0.720000028610229492 0.225713148713111877
0.332170099020004272 0.720000028610229492 0.229659721255302429
0.359812676906585693 0.720000028610229492 0.253339171409606934
0.351914793252944946 0.720000028610229492 0.308591187000274658
0.359812676906585693 0.720000028610229492 0.320430904626846313
0.355863749980926514 0.720000028610229492 0.391469240188598633
0.363761633634567261 0.720000028610229492 0.49802669882774353
0.359812676906585693 0.720000028610229492 0.501973271369934082
0.355863749980926514 0.720000028610229492 0.576958179473876953
0.363761633634567261 0.720000028610229492 0.62037050724029541
0.375608444213867188 0.720000028610229492 0.636156797409057617
0.379557371139526367 0.720000028610229492 0.636156797409057617
0.411148875951766968 0.720000028610229492 0.663782775402069092
0.411148875951766968 0.720000028610229492 0.667729377746582031
0.419046759605407715 0.720000028610229492 0.675622522830963135
