ply
format ascii 1.0
element vertex 772
property float x
property float y
property float z
end_header
0.375608444213867188 0.825592279434204102 0.460000008344650269
0.391404181718826294 0.825592279434204102 0.460000008344650269
0.395353138446807861 0.821645736694335938 0.460000008344650269
0.395353138446807861 0.80585944652557373 0.460000008344650269
0.391404181718826294 0.801912844181060791 0.460000008344650269
0.375608444213867188 0.80585944652557373 0.460000008344650269
0.375608444213867188 0.809805989265441895 0.460000008344650269
0.37165948748588562 0.813752591609954834 0.460000008344650269
0.46643403172492981 0.695355355739593506 0.460000008344650269
0.470382958650588989 0.699301958084106445 0.460000008344650269
0.482229769229888916 0.699301958084106445 0.460000008344650269
0.486178725957870483 0.683515667915344238 0.460000008344650269
0.482229769229888916 0.679569065570831299 0.460000008344650269
0.470382958650588989 0.679569065570831299 0.460000008344650269
0.46643403172492981 0.683515667915344238 0.460000008344650269
0.470382958650588989 0.746660828590393066 0.460000008344650269
0.478280842304229736 0.746660828590393066 0.460000008344650269
0.478280842304229736 0.738767683506011963 0.460000008344650269
0.474331885576248169 0.738767683506011963 0.460000008344650269
0.470382958650588989 0.734821140766143799 0.460000008344650269
0.355863749980926514 0.419095247983932495 0.47999998927116394
0.359812676906585693 0.423041820526123047 0.47999998927116394
0.375608444213867188 0.517759561538696289 0.47999998927116394
0.419046759605407715 0.584851324558258057 0.47999998927116394
0.419046759605407715 0.5966910719871521 0.47999998927116394
0.422995686531066895 0.600637614727020264 0.47999998927116394
0.426944643259048462 0.600637614727020264 0.47999998927116394
0.426944643259048462 0.5966910719871521 0.47999998927116394
0.454587221145629883 0.56511843204498291 0.47999998927116394
0.458536148071289062 0.56511843204498291 0.47999998927116394
0.494076579809188843 0.533545851707458496 0.47999998927116394
0.50197446346282959 0.513813018798828125 0.47999998927116394
0.509872317314147949 0.505919873714447021 0.47999998927116394
0.533565998077392578 0.399362385272979736 0.47999998927116394
0.537514925003051758 0.395415812730789185 0.47999998927116394
0.545412778854370117 0.288858324289321899 0.47999998927116394
0.529617011547088623 0.241499438881874084 0.47999998927116394
0.509872317314147949 0.213873431086540222 0.47999998927116394
0.50197446346282959 0.20992685854434967 0.47999998927116394
0.478280842304229736 0.205980286002159119 0.47999998927116394
0.474331885576248169 0.20992685854434967 0.47999998927116394
0.426944643259048462 0.225713148713111877 0.47999998927116394
0.375608444213867188 0.296751469373703003 0.47999998927116394
0.359812676906585693 0.383576095104217529 0.47999998927116394
0.355863749980926514 0.387522667646408081 0.47999998927116394
0.37165948748588562 0.833485424518585205 0.47999998927116394
0.379557371139526367 0.833485424518585205 0.47999998927116394
0.387455254793167114 0.825592279434204102 0.47999998927116394
0.387455254793167114 0.821645736694335938 0.47999998927116394
0.379557371139526367 0.813752591609954834 0.47999998927116394
0.375608444213867188 0.817699134349822998 0.47999998927116394
0.37165948748588562 0.817699134349822998 0.47999998927116394
0.37165948748588562 0.821645736694335938 0.47999998927116394
0.36771056056022644 0.825592279434204102 0.47999998927116394
0.5928000807762146 0.217820003628730774 0.47999998927116394
0.596749007701873779 0.217820003628730774 0.47999998927116394
0.596749007701873779 0.213873431086540222 0.47999998927116394
0.600697934627532959 0.20992685854434967 0.47999998927116394
0.604646861553192139 0.213873431086540222 0.47999998927116394
0.608595788478851318 0.20992685854434967 0.47999998927116394
0.608595788478851318 0.202033713459968567 0.47999998927116394
0.604646861553192139 0.202033713459968567 0.47999998927116394
0.584902167320251465 0.221766576170921326 0.47999998927116394
0.355863749980926514 0.442774683237075806 0.5
0.37165948748588562 0.545385599136352539 0.5
0.411148875951766968 0.5966910719871521 0.5
0.415097832679748535 0.624317049980163574 0.5
0.419046759605407715 0.628263652324676514 0.5
0.422995686531066895 0.628263652324676514 0.5
0.450638264417648315 0.588797926902770996 0.5
0.470382958650588989 0.580904781818389893 0.5
0.509872317314147949 0.525652706623077393 0.5
0.533565998077392578 0.40725553035736084 0.5
0.529617011547088623 0.403308957815170288 0.5
0.533565998077392578 0.399362385272979736 0.5
0.533565998077392578 0.355950057506561279 0.5
0.533565998077392578 0.316484332084655762 0.5
0.509872317314147949 0.253339171409606934 0.5
0.50592339038848877 0.249392583966255188 0.5
0.50592339038848877 0.245446011424064636 0.5
0.46643403172492981 0.237552866339683533 0.5
0.462485074996948242 0.241499438881874084 0.5
0.430893570184707642 0.249392583966255188 0.5
0.37165948748588562 0.332270622253417969 0.5
0.355863749980926514 0.403308957815170288 0.5
0.375608444213867188 0.841378569602966309 0.5
0.375608444213867188 0.833485424518585205 0.5
0.37165948748588562 0.829538881778717041 0.5
0.37165948748588562 0.833485424518585205 0.5
0.36771056056022644 0.837432026863098145 0.5
0.355863749980926514 0.454614400863647461 0.519999980926513672
0.355863749980926514 0.494080126285552979 0.519999980926513672
0.37165948748588562 0.573011636734008789 0.519999980926513672
0.415097832679748535 0.62037050724029541 0.519999980926513672
0.419046759605407715 0.640103340148925781 0.519999980926513672
0.422995686531066895 0.640103340148925781 0.519999980926513672
0.446689337491989136 0.608530759811401367 0.519999980926513672
0.46643403172492981 0.600637614727020264 0.519999980926513672
0.49802553653717041 0.573011636734008789 0.519999980926513672
0.521719157695770264 0.466454118490219116 0.519999980926513672
0.525668084621429443 0.462507545948028564 0.519999980926513672
0.525668084621429443 0.419095247983932495 0.519999980926513672
0.525668084621429443 0.379629522562026978 0.519999980926513672
0.50592339038848877 0.304644614458084106 0.519999980926513672
0.486178725957870483 0.280965179204940796 0.519999980926513672
0.454587221145629883 0.273072034120559692 0.519999980926513672
0.450638264417648315 0.277018606662750244 0.519999980926513672
0.434842526912689209 0.280965179204940796 0.519999980926513672
0.395353138446807861 0.316484332084655762 0.519999980926513672
0.395353138446807861 0.324377477169036865 0.519999980926513672
0.387455254793167114 0.332270622253417969 0.519999980926513672
0.387455254793167114 0.340163767337799072 0.519999980926513672
0.36771056056022644 0.371736377477645874 0.519999980926513672
0.355863749980926514 0.415148675441741943 0.519999980926513672
0.351914793252944946 0.517759561538696289 0.540000021457672119
0.37165948748588562 0.5966910719871521 0.540000021457672119
0.407199949026107788 0.628263652324676514 0.540000021457672119
0.407199949026107788 0.632210195064544678 0.540000021457672119
0.419046759605407715 0.647996485233306885 0.540000021457672119
0.422995686531066895 0.647996485233306885 0.540000021457672119
0.438791453838348389 0.628263652324676514 0.540000021457672119
0.46643403172492981 0.616423904895782471 0.540000021457672119
0.49802553653717041 0.588797926902770996 0.540000021457672119
0.517770230770111084 0.470400691032409668 0.540000021457672119
0.517770230770111084 0.43093496561050415 0.540000021457672119
0.49802553653717041 0.352003484964370728 0.540000021457672119
0.486178725957870483 0.336217194795608521 0.540000021457672119
0.486178725957870483 0.328324049711227417 0.540000021457672119
0.46643403172492981 0.316484332084655762 0.540000021457672119
0.426944643259048462 0.324377477169036865 0.540000021457672119
0.407199949026107788 0.340163767337799072 0.540000021457672119
0.407199949026107788 0.344110339879989624 0.540000021457672119
0.36771056056022644 0.40725553035736084 0.540000021457672119
0.351914793252944946 0.478293836116790771 0.540000021457672119
0.351914793252944946 0.537492454051971436 0.560000002384185791
0.359812676906585693 0.59274446964263916 0.560000002384185791
0.411148875951766968 0.647996485233306885 0.560000002384185791
0.411148875951766968 0.655889630317687988 0.560000002384185791
0.419046759605407715 0.663782775402069092 0.560000002384185791
0.426944643259048462 0.663782775402069092 0.560000002384185791
0.426944643259048462 0.655889630317687988 0.560000002384185791
0.446689337491989136 0.636156797409057617 0.560000002384185791
0.470382958650588989 0.628263652324676514 0.560000002384185791
0.50592339038848877 0.580904781818389893 0.560000002384185791
0.513821303844451904 0.490133553743362427 0.560000002384185791
0.509872317314147949 0.486186981201171875 0.560000002384185791
0.486178725957870483 0.40725553035736084 0.560000002384185791
0.482229769229888916 0.403308957815170288 0.560000002384185791
0.478280842304229736 0.387522667646408081 0.560000002384185791
0.450638264417648315 0.363843232393264771 0.560000002384185791
0.426944643259048462 0.367789804935455322 0.560000002384185791
0.363761633634567261 0.450667828321456909 0.560000002384185791
0.351914793252944946 0.49802669882774353 0.560000002384185791
0.541463851928710938 0.18624742329120636 0.560000002384185791
0.545412778854370117 0.182300850749015808 0.560000002384185791
0.545412778854370117 0.174407690763473511 0.560000002384185791
0.541463851928710938 0.170461118221282959 0.560000002384185791
0.537514925003051758 0.170461118221282959 0.560000002384185791
0.580953240394592285 0.202033713459968567 0.560000002384185791
0.584902167320251465 0.205980286002159119 0.560000002384185791
0.600697934627532959 0.202033713459968567 0.560000002384185791
0.604646861553192139 0.18624742329120636 0.560000002384185791
0.608595788478851318 0.182300850749015808 0.560000002384185791
0.5928000807762146 0.166514545679092407 0.560000002384185791
0.584902167320251465 0.166514545679092407 0.560000002384185791
0.580953240394592285 0.170461118221282959 0.560000002384185791
0.636238396167755127 0.194140568375587463 0.560000002384185791
0.644136250019073486 0.18624742329120636 0.560000002384185791
0.648085176944732666 0.170461118221282959 0.560000002384185791
0.644136250019073486 0.166514545679092407 0.560000002384185791
0.628340482711791992 0.170461118221282959 0.560000002384185791
0.628340482711791992 0.174407690763473511 0.560000002384185791
0.624391555786132812 0.178354263305664062 0.560000002384185791
0.351914793252944946 0.557225286960601807 0.579999983310699463
0.363761633634567261 0.612477362155914307 0.579999983310699463
0.411148875951766968 0.655889630317687988 0.579999983310699463
0.415097832679748535 0.663782775402069092 0.579999983310699463
0.415097832679748535 0.667729377746582031 0.579999983310699463
0.419046759605407715 0.667729377746582031 0.579999983310699463
0.430893570184707642 0.651943087577819824 0.579999983310699463
0.438791453838348389 0.647996485233306885 0.579999983310699463
0.46643403172492981 0.640103340148925781 0.579999983310699463
0.482229769229888916 0.628263652324676514 0.579999983310699463
0.482229769229888916 0.624317049980163574 0.579999983310699463
0.49802553653717041 0.604584217071533203 0.579999983310699463
0.509872317314147949 0.521706163883209229 0.579999983310699463
0.50197446346282959 0.494080126285552979 0.579999983310699463
0.458536148071289062 0.43093496561050415 0.579999983310699463
0.426944643259048462 0.419095247983932495 0.579999983310699463
0.422995686531066895 0.423041820526123047 0.579999983310699463
0.407199949026107788 0.426988393068313599 0.579999983310699463
0.359812676906585693 0.490133553743362427 0.579999983310699463
0.351914793252944946 0.517759561538696289 0.579999983310699463
0.541463851928710938 0.205980286002159119 0.579999983310699463
0.545412778854370117 0.20992685854434967 0.579999983310699463
0.573055386543273926 0.202033713459968567 0.579999983310699463
0.577004313468933105 0.205980286002159119 0.579999983310699463
0.596749007701873779 0.205980286002159119 0.579999983310699463
0.604646861553192139 0.198087140917778015 0.579999983310699463
0.640187323093414307 0.202033713459968567 0.579999983310699463
0.652034103870391846 0.190193995833396912 0.579999983310699463
0.652034103870391846 0.170461118221282959 0.579999983310699463
0.612544775009155273 0.174407690763473511 0.579999983310699463
0.608595788478851318 0.170461118221282959 0.579999983310699463
0.604646861553192139 0.174407690763473511 0.579999983310699463
0.600697934627532959 0.170461118221282959 0.579999983310699463
0.557259619235992432 0.182300850749015808 0.579999983310699463
0.553310692310333252 0.178354263305664062 0.579999983310699463
0.537514925003051758 0.178354263305664062 0.579999983310699463
0.351914793252944946 0.573011636734008789 0.60000002384185791
0.355863749980926514 0.612477362155914307 0.60000002384185791
0.383506327867507935 0.644049942493438721 0.60000002384185791
0.387455254793167114 0.644049942493438721 0.60000002384185791
0.411148875951766968 0.663782775402069092 0.60000002384185791
0.411148875951766968 0.675622522830963135 0.60000002384185791
0.415097832679748535 0.679569065570831299 0.60000002384185791
0.419046759605407715 0.679569065570831299 0.60000002384185791
0.426944643259048462 0.671675920486450195 0.60000002384185791
0.426944643259048462 0.663782775402069092 0.60000002384185791
0.446689337491989136 0.651943087577819824 0.60000002384185791
0.46643403172492981 0.647996485233306885 0.60000002384185791
0.478280842304229736 0.636156797409057617 0.60000002384185791
0.482229769229888916 0.636156797409057617 0.60000002384185791
0.482229769229888916 0.632210195064544678 0.60000002384185791
0.50197446346282959 0.604584217071533203 0.60000002384185791
0.509872317314147949 0.545385599136352539 0.60000002384185791
0.50592339038848877 0.5414389967918396 0.60000002384185791
0.50197446346282959 0.521706163883209229 0.60000002384185791
0.46643403172492981 0.478293836116790771 0.60000002384185791
0.462485074996948242 0.478293836116790771 0.60000002384185791
0.430893570184707642 0.458560973405838013 0.60000002384185791
0.403250992298126221 0.462507545948028564 0.60000002384185791
0.383506327867507935 0.478293836116790771 0.60000002384185791
0.383506327867507935 0.482240408658981323 0.60000002384185791
0.355863749980926514 0.521706163883209229 0.60000002384185791
0.355863749980926514 0.529599308967590332 0.60000002384185791
0.351914793252944946 0.533545851707458496 0.60000002384185791
0.403250992298126221 0.31253775954246521 0.60000002384185791
0.430893570184707642 0.336217194795608521 0.60000002384185791
0.442740380764007568 0.336217194795608521 0.60000002384185791
0.470382958650588989 0.304644614458084106 0.60000002384185791
0.478280842304229736 0.273072034120559692 0.60000002384185791
0.482229769229888916 0.269125461578369141 0.60000002384185791
0.490127652883529663 0.269125461578369141 0.60000002384185791
0.478280842304229736 0.205980286002159119 0.60000002384185791
0.470382958650588989 0.198087140917778015 0.60000002384185791
0.470382958650588989 0.194140568375587463 0.60000002384185791
0.446689337491989136 0.190193995833396912 0.60000002384185791
0.442740380764007568 0.194140568375587463 0.60000002384185791
0.419046759605407715 0.202033713459968567 0.60000002384185791
0.395353138446807861 0.237552866339683533 0.60000002384185791
0.395353138446807861 0.245446011424064636 0.60000002384185791
0.391404181718826294 0.249392583966255188 0.60000002384185791
0.509872317314147949 0.269125461578369141 0.60000002384185791
0.513821303844451904 0.265178889036178589 0.60000002384185791
0.525668084621429443 0.265178889036178589 0.60000002384185791
0.533565998077392578 0.253339171409606934 0.60000002384185791
0.537514925003051758 0.237552866339683533 0.60000002384185791
0.521719157695770264 0.233606293797492981 0.60000002384185791
0.513821303844451904 0.237552866339683533 0.60000002384185791
0.509872317314147949 0.241499438881874084 0.60000002384185791
0.537514925003051758 0.213873431086540222 0.60000002384185791
0.541463851928710938 0.20992685854434967 0.60000002384185791
0.616493701934814453 0.194140568375587463 0.60000002384185791
0.620442628860473633 0.198087140917778015 0.60000002384185791
0.636238396167755127 0.198087140917778015 0.60000002384185791
0.644136250019073486 0.190193995833396912 0.60000002384185791
0.644136250019073486 0.174407690763473511 0.60000002384185791
0.612544775009155273 0.170461118221282959 0.60000002384185791
0.608595788478851318 0.174407690763473511 0.60000002384185791
0.541463851928710938 0.182300850749015808 0.60000002384185791
0.541463851928710938 0.18624742329120636 0.60000002384185791
0.537514925003051758 0.190193995833396912 0.60000002384185791
0.33611905574798584 0.249392583966255188 0.620000004768371582
0.34006798267364502 0.249392583966255188 0.620000004768371582
0.344016939401626587 0.245446011424064636 0.620000004768371582
0.347965866327285767 0.249392583966255188 0.620000004768371582
0.347965866327285767 0.245446011424064636 0.620000004768371582
0.344016939401626587 0.241499438881874084 0.620000004768371582
0.332170099020004272 0.241499438881874084 0.620000004768371582
0.355863749980926514 0.62037050724029541 0.620000004768371582
0.37165948748588562 0.640103340148925781 0.620000004768371582
0.375608444213867188 0.640103340148925781 0.620000004768371582
0.407199949026107788 0.663782775402069092 0.620000004768371582
0.411148875951766968 0.675622522830963135 0.620000004768371582
0.415097832679748535 0.679569065570831299 0.620000004768371582
0.419046759605407715 0.679569065570831299 0.620000004768371582
0.430893570184707642 0.663782775402069092 0.620000004768371582
0.478280842304229736 0.644049942493438721 0.620000004768371582
0.49802553653717041 0.62037050724029541 0.620000004768371582
0.50592339038848877 0.549332141876220703 0.620000004768371582
0.50197446346282959 0.5414389967918396 0.620000004768371582
0.470382958650588989 0.501973271369934082 0.620000004768371582
0.407199949026107788 0.486186981201171875 0.620000004768371582
0.403250992298126221 0.490133553743362427 0.620000004768371582
0.395353138446807861 0.490133553743362427 0.620000004768371582
0.355863749980926514 0.537492454051971436 0.620000004768371582
0.347965866327285767 0.573011636734008789 0.620000004768371582
0.379557371139526367 0.336217194795608521 0.620000004768371582
0.422995686531066895 0.367789804935455322 0.620000004768371582
0.450638264417648315 0.363843232393264771 0.620000004768371582
0.50197446346282959 0.288858324289321899 0.620000004768371582
0.50592339038848877 0.288858324289321899 0.620000004768371582
0.509872317314147949 0.284911751747131348 0.620000004768371582
0.513821303844451904 0.288858324289321899 0.620000004768371582
0.549361705780029297 0.288858324289321899 0.620000004768371582
0.557259619235992432 0.280965179204940796 0.620000004768371582
0.561208546161651611 0.280965179204940796 0.620000004768371582
0.561208546161651611 0.277018606662750244 0.620000004768371582
0.573055386543273926 0.261232316493988037 0.620000004768371582
0.565157473087310791 0.20992685854434967 0.620000004768371582
0.584902167320251465 0.198087140917778015 0.620000004768371582
0.628340482711791992 0.198087140917778015 0.620000004768371582
0.636238396167755127 0.190193995833396912 0.620000004768371582
0.636238396167755127 0.170461118221282959 0.620000004768371582
0.632289469242095947 0.166514545679092407 0.620000004768371582
0.557259619235992432 0.182300850749015808 0.620000004768371582
0.557259619235992432 0.190193995833396912 0.620000004768371582
0.537514925003051758 0.202033713459968567 0.620000004768371582
0.517770230770111084 0.198087140917778015 0.620000004768371582
0.482229769229888916 0.166514545679092407 0.620000004768371582
0.462485074996948242 0.166514545679092407 0.620000004768371582
0.458536148071289062 0.162567973136901855 0.620000004768371582
0.454587221145629883 0.166514545679092407 0.620000004768371582
0.422995686531066895 0.174407690763473511 0.620000004768371582
0.395353138446807861 0.198087140917778015 0.620000004768371582
0.395353138446807861 0.202033713459968567 0.620000004768371582
0.379557371139526367 0.221766576170921326 0.620000004768371582
0.36771056056022644 0.265178889036178589 0.620000004768371582
0.296629667282104492 0.20992685854434967 0.639999985694885254
0.308476477861404419 0.20992685854434967 0.639999985694885254
0.308476477861404419 0.205980286002159119 0.639999985694885254
0.300578594207763672 0.198087140917778015 0.639999985694885254
0.296629667282104492 0.198087140917778015 0.639999985694885254
0.328221172094345093 0.257285743951797485 0.639999985694885254
0.355863749980926514 0.257285743951797485 0.639999985694885254
0.359812676906585693 0.261232316493988037 0.639999985694885254
0.359812676906585693 0.304644614458084106 0.639999985694885254
0.375608444213867188 0.363843232393264771 0.639999985694885254
0.426944643259048462 0.399362385272979736 0.639999985694885254
0.450638264417648315 0.395415812730789185 0.639999985694885254
0.470382958650588989 0.379629522562026978 0.639999985694885254
0.470382958650588989 0.375682950019836426 0.639999985694885254
0.486178725957870483 0.352003484964370728 0.639999985694885254
0.50197446346282959 0.308591187000274658 0.639999985694885254
0.513821303844451904 0.296751469373703003 0.639999985694885254
0.565157473087310791 0.304644614458084106 0.639999985694885254
0.569106400012969971 0.300698041915893555 0.639999985694885254
0.577004313468933105 0.300698041915893555 0.639999985694885254
0.5928000807762146 0.277018606662750244 0.639999985694885254
0.573055386543273926 0.205980286002159119 0.639999985694885254
0.584902167320251465 0.198087140917778015 0.639999985694885254
0.628340482711791992 0.190193995833396912 0.639999985694885254
0.632289469242095947 0.170461118221282959 0.639999985694885254
0.628340482711791992 0.166514545679092407 0.639999985694885254
0.628340482711791992 0.162567973136901855 0.639999985694885254
0.565157473087310791 0.178354263305664062 0.639999985694885254
0.561208546161651611 0.194140568375587463 0.639999985694885254
0.557259619235992432 0.198087140917778015 0.639999985694885254
0.545412778854370117 0.194140568375587463 0.639999985694885254
0.513821303844451904 0.154674828052520752 0.639999985694885254
0.462485074996948242 0.146781682968139648 0.639999985694885254
0.458536148071289062 0.1507282555103302 0.639999985694885254
0.411148875951766968 0.166514545679092407 0.639999985694885254
0.359812676906585693 0.241499438881874084 0.639999985694885254
0.347965866327285767 0.241499438881874084 0.639999985694885254
0.34006798267364502 0.233606293797492981 0.639999985694885254
0.332170099020004272 0.233606293797492981 0.639999985694885254
0.328221172094345093 0.237552866339683533 0.639999985694885254
0.351914793252944946 0.600637614727020264 0.639999985694885254
0.355863749980926514 0.624317049980163574 0.639999985694885254
0.407199949026107788 0.663782775402069092 0.639999985694885254
0.411148875951766968 0.671675920486450195 0.639999985694885254
0.411148875951766968 0.679569065570831299 0.639999985694885254
0.415097832679748535 0.683515667915344238 0.639999985694885254
0.419046759605407715 0.683515667915344238 0.639999985694885254
0.438791453838348389 0.659836232662200928 0.639999985694885254
0.470382958650588989 0.651943087577819824 0.639999985694885254
0.494076579809188843 0.632210195064544678 0.639999985694885254
0.50592339038848877 0.561171889305114746 0.639999985694885254
0.50197446346282959 0.557225286960601807 0.639999985694885254
0.49802553653717041 0.5414389967918396 0.639999985694885254
0.478280842304229736 0.521706163883209229 0.639999985694885254
0.478280842304229736 0.517759561538696289 0.639999985694885254
0.474331885576248169 0.517759561538696289 0.639999985694885254
0.458536148071289062 0.505919873714447021 0.639999985694885254
0.407199949026107788 0.49802669882774353 0.639999985694885254
0.359812676906585693 0.537492454051971436 0.639999985694885254
0.355863749980926514 0.545385599136352539 0.639999985694885254
0.347965866327285767 0.59274446964263916 0.639999985694885254
0.292680740356445312 0.221766576170921326 0.660000026226043701
0.296629667282104492 0.225713148713111877 0.660000026226043701
0.308476477861404419 0.225713148713111877 0.660000026226043701
0.316374361515045166 0.233606293797492981 0.660000026226043701
0.320323288440704346 0.265178889036178589 0.660000026226043701
0.347965866327285767 0.261232316493988037 0.660000026226043701
0.355863749980926514 0.269125461578369141 0.660000026226043701
0.351914793252944946 0.320430904626846313 0.660000026226043701
0.355863749980926514 0.324377477169036865 0.660000026226043701
0.375608444213867188 0.391469240188598633 0.660000026226043701
0.426944643259048462 0.43093496561050415 0.660000026226043701
0.458536148071289062 0.423041820526123047 0.660000026226043701
0.486178725957870483 0.387522667646408081 0.660000026226043701
0.513821303844451904 0.304644614458084106 0.660000026226043701
0.521719157695770264 0.296751469373703003 0.660000026226043701
0.588851094245910645 0.316484332084655762 0.660000026226043701
0.596749007701873779 0.308591187000274658 0.660000026226043701
0.600697934627532959 0.308591187000274658 0.660000026226043701
0.608595788478851318 0.273072034120559692 0.660000026226043701
0.604646861553192139 0.269125461578369141 0.660000026226043701
0.588851094245910645 0.225713148713111877 0.660000026226043701
0.584902167320251465 0.221766576170921326 0.660000026226043701
0.588851094245910645 0.217820003628730774 0.660000026226043701
0.624391555786132812 0.213873431086540222 0.660000026226043701
0.632289469242095947 0.166514545679092407 0.660000026226043701
0.628340482711791992 0.162567973136901855 0.660000026226043701
0.620442628860473633 0.162567973136901855 0.660000026226043701
0.616493701934814453 0.158621400594711304 0.660000026226043701
0.612544775009155273 0.162567973136901855 0.660000026226043701
0.561208546161651611 0.174407690763473511 0.660000026226043701
0.529617011547088623 0.146781682968139648 0.660000026226043701
0.470382958650588989 0.1507282555103302 0.660000026226043701
0.46643403172492981 0.146781682968139648 0.660000026226043701
0.411148875951766968 0.158621400594711304 0.660000026226043701
0.359812676906585693 0.225713148713111877 0.660000026226043701
0.328221172094345093 0.217820003628730774 0.660000026226043701
0.308476477861404419 0.198087140917778015 0.660000026226043701
0.300578594207763672 0.198087140917778015 0.660000026226043701
0.296629667282104492 0.202033713459968567 0.660000026226043701
0.296629667282104492 0.205980286002159119 0.660000026226043701
0.292680740356445312 0.20992685854434967 0.660000026226043701
0.355863749980926514 0.624317049980163574 0.660000026226043701
0.37165948748588562 0.640103340148925781 0.660000026226043701
0.37165948748588562 0.644049942493438721 0.660000026226043701
0.375608444213867188 0.644049942493438721 0.660000026226043701
0.407199949026107788 0.667729377746582031 0.660000026226043701
0.411148875951766968 0.675622522830963135 0.660000026226043701
0.411148875951766968 0.679569065570831299 0.660000026226043701
0.415097832679748535 0.679569065570831299 0.660000026226043701
0.419046759605407715 0.683515667915344238 0.660000026226043701
0.422995686531066895 0.679569065570831299 0.660000026226043701
0.426944643259048462 0.679569065570831299 0.660000026226043701
0.426944643259048462 0.675622522830963135 0.660000026226043701
0.442740380764007568 0.659836232662200928 0.660000026226043701
0.478280842304229736 0.647996485233306885 0.660000026226043701
0.50592339038848877 0.608530759811401367 0.660000026226043701
0.50592339038848877 0.56511843204498291 0.660000026226043701
0.50197446346282959 0.549332141876220703 0.660000026226043701
0.470382958650588989 0.513813018798828125 0.660000026226043701
0.419046759605407715 0.49802669882774353 0.660000026226043701
0.407199949026107788 0.505919873714447021 0.660000026226043701
0.399302065372467041 0.505919873714447021 0.660000026226043701
0.363761633634567261 0.537492454051971436 0.660000026226043701
0.347965866327285767 0.584851324558258057 0.660000026226043701
0.284782856702804565 0.166514545679092407 0.680000007152557373
0.288731783628463745 0.162567973136901855 0.680000007152557373
0.296629667282104492 0.162567973136901855 0.680000007152557373
0.284782856702804565 0.154674828052520752 0.680000007152557373
0.280833899974822998 0.154674828052520752 0.680000007152557373
0.292680740356445312 0.225713148713111877 0.680000007152557373
0.296629667282104492 0.229659721255302429 0.680000007152557373
0.316374361515045166 0.233606293797492981 0.680000007152557373
0.324272245168685913 0.241499438881874084 0.680000007152557373
0.324272245168685913 0.249392583966255188 0.680000007152557373
0.332170099020004272 0.257285743951797485 0.680000007152557373
0.351914793252944946 0.261232316493988037 0.680000007152557373
0.355863749980926514 0.265178889036178589 0.680000007152557373
0.351914793252944946 0.352003484964370728 0.680000007152557373
0.355863749980926514 0.355950057506561279 0.680000007152557373
0.375608444213867188 0.419095247983932495 0.680000007152557373
0.419046759605407715 0.47434726357460022 0.680000007152557373
0.355863749980926514 0.553278744220733643 0.680000007152557373
0.351914793252944946 0.612477362155914307 0.680000007152557373
0.36771056056022644 0.640103340148925781 0.680000007152557373
0.37165948748588562 0.640103340148925781 0.680000007152557373
0.411148875951766968 0.671675920486450195 0.680000007152557373
0.411148875951766968 0.675622522830963135 0.680000007152557373
0.415097832679748535 0.679569065570831299 0.680000007152557373
0.422995686531066895 0.679569065570831299 0.680000007152557373
0.438791453838348389 0.659836232662200928 0.680000007152557373
0.482229769229888916 0.644049942493438721 0.680000007152557373
0.50592339038848877 0.608530759811401367 0.680000007152557373
0.50592339038848877 0.56511843204498291 0.680000007152557373
0.49802553653717041 0.5414389967918396 0.680000007152557373
0.470382958650588989 0.505919873714447021 0.680000007152557373
0.470382958650588989 0.501973271369934082 0.680000007152557373
0.46643403172492981 0.501973271369934082 0.680000007152557373
0.446689337491989136 0.478293836116790771 0.680000007152557373
0.446689337491989136 0.47434726357460022 0.680000007152557373
0.482229769229888916 0.442774683237075806 0.680000007152557373
0.486178725957870483 0.434881538152694702 0.680000007152557373
0.509872317314147949 0.316484332084655762 0.680000007152557373
0.529617011547088623 0.288858324289321899 0.680000007152557373
0.541463851928710938 0.292804896831512451 0.680000007152557373
0.588851094245910645 0.328324049711227417 0.680000007152557373
0.608595788478851318 0.328324049711227417 0.680000007152557373
0.624391555786132812 0.308591187000274658 0.680000007152557373
0.620442628860473633 0.304644614458084106 0.680000007152557373
0.620442628860473633 0.280965179204940796 0.680000007152557373
0.632289469242095947 0.269125461578369141 0.680000007152557373
0.640187323093414307 0.269125461578369141 0.680000007152557373
0.644136250019073486 0.229659721255302429 0.680000007152557373
0.640187323093414307 0.225713148713111877 0.680000007152557373
0.632289469242095947 0.194140568375587463 0.680000007152557373
0.640187323093414307 0.182300850749015808 0.680000007152557373
0.640187323093414307 0.174407690763473511 0.680000007152557373
0.644136250019073486 0.170461118221282959 0.680000007152557373
0.640187323093414307 0.166514545679092407 0.680000007152557373
0.640187323093414307 0.162567973136901855 0.680000007152557373
0.620442628860473633 0.158621400594711304 0.680000007152557373
0.616493701934814453 0.162567973136901855 0.680000007152557373
0.608595788478851318 0.162567973136901855 0.680000007152557373
0.596749007701873779 0.174407690763473511 0.680000007152557373
0.577004313468933105 0.170461118221282959 0.680000007152557373
0.549361705780029297 0.146781682968139648 0.680000007152557373
0.478280842304229736 0.158621400594711304 0.680000007152557373
0.474331885576248169 0.154674828052520752 0.680000007152557373
0.426944643259048462 0.146781682968139648 0.680000007152557373
0.407199949026107788 0.158621400594711304 0.680000007152557373
0.407199949026107788 0.162567973136901855 0.680000007152557373
0.363761633634567261 0.217820003628730774 0.680000007152557373
0.344016939401626587 0.213873431086540222 0.680000007152557373
0.308476477861404419 0.190193995833396912 0.680000007152557373
0.304527550935745239 0.190193995833396912 0.680000007152557373
0.292680740356445312 0.205980286002159119 0.680000007152557373
0.276884973049163818 0.174407690763473511 0.699999988079071045
0.284782856702804565 0.198087140917778015 0.699999988079071045
0.300578594207763672 0.202033713459968567 0.699999988079071045
0.316374361515045166 0.221766576170921326 0.699999988079071045
0.316374361515045166 0.225713148713111877 0.699999988079071045
0.328221172094345093 0.229659721255302429 0.699999988079071045
0.344016939401626587 0.249392583966255188 0.699999988079071045
0.347965866327285767 0.249392583966255188 0.699999988079071045
0.355863749980926514 0.257285743951797485 0.699999988079071045
0.351914793252944946 0.296751469373703003 0.699999988079071045
0.355863749980926514 0.300698041915893555 0.699999988079071045
0.351914793252944946 0.375682950019836426 0.699999988079071045
0.355863749980926514 0.379629522562026978 0.699999988079071045
0.375608444213867188 0.49802669882774353 0.699999988079071045
0.351914793252944946 0.600637614727020264 0.699999988079071045
0.355863749980926514 0.604584217071533203 0.699999988079071045
0.359812676906585693 0.624317049980163574 0.699999988079071045
0.37165948748588562 0.640103340148925781 0.699999988079071045
0.375608444213867188 0.640103340148925781 0.699999988079071045
0.411148875951766968 0.671675920486450195 0.699999988079071045
0.411148875951766968 0.675622522830963135 0.699999988079071045
0.415097832679748535 0.679569065570831299 0.699999988079071045
0.426944643259048462 0.679569065570831299 0.699999988079071045
0.438791453838348389 0.659836232662200928 0.699999988079071045
0.462485074996948242 0.651943087577819824 0.699999988079071045
0.49802553653717041 0.624317049980163574 0.699999988079071045
0.50197446346282959 0.616423904895782471 0.699999988079071045
0.509872317314147949 0.557225286960601807 0.699999988079071045
0.50592339038848877 0.553278744220733643 0.699999988079071045
0.490127652883529663 0.482240408658981323 0.699999988079071045
0.494076579809188843 0.478293836116790771 0.699999988079071045
0.494076579809188843 0.470400691032409668 0.699999988079071045
0.50197446346282959 0.462507545948028564 0.699999988079071045
0.509872317314147949 0.462507545948028564 0.699999988079071045
0.509872317314147949 0.419095247983932495 0.699999988079071045
0.509872317314147949 0.379629522562026978 0.699999988079071045
0.509872317314147949 0.340163767337799072 0.699999988079071045
0.513821303844451904 0.300698041915893555 0.699999988079071045
0.549361705780029297 0.269125461578369141 0.699999988079071045
0.553310692310333252 0.269125461578369141 0.699999988079071045
0.561208546161651611 0.277018606662750244 0.699999988079071045
0.561208546161651611 0.320430904626846313 0.699999988079071045
0.561208546161651611 0.359896659851074219 0.699999988079071045
0.561208546161651611 0.399362385272979736 0.699999988079071045
0.561208546161651611 0.411202102899551392 0.699999988079071045
0.565157473087310791 0.415148675441741943 0.699999988079071045
0.561208546161651611 0.419095247983932495 0.699999988079071045
0.561208546161651611 0.458560973405838013 0.699999988079071045
0.573055386543273926 0.442774683237075806 0.699999988079071045
0.584902167320251465 0.403308957815170288 0.699999988079071045
0.580953240394592285 0.403308957815170288 0.699999988079071045
0.577004313468933105 0.399362385272979736 0.699999988079071045
0.584902167320251465 0.340163767337799072 0.699999988079071045
0.588851094245910645 0.336217194795608521 0.699999988079071045
0.596749007701873779 0.348056912422180176 0.699999988079071045
0.596749007701873779 0.391469240188598633 0.699999988079071045
0.604646861553192139 0.399362385272979736 0.699999988079071045
0.612544775009155273 0.399362385272979736 0.699999988079071045
0.616493701934814453 0.403308957815170288 0.699999988079071045
0.624391555786132812 0.395415812730789185 0.699999988079071045
0.632289469242095947 0.363843232393264771 0.699999988079071045
0.628340482711791992 0.359896659851074219 0.699999988079071045
0.628340482711791992 0.344110339879989624 0.699999988079071045
0.636238396167755127 0.336217194795608521 0.699999988079071045
0.652034103870391846 0.332270622253417969 0.699999988079071045
0.65993201732635498 0.320430904626846313 0.699999988079071045
0.655983090400695801 0.316484332084655762 0.699999988079071045
0.66388094425201416 0.273072034120559692 0.699999988079071045
0.65993201732635498 0.269125461578369141 0.699999988079071045
0.644136250019073486 0.225713148713111877 0.699999988079071045
0.628340482711791992 0.20992685854434967 0.699999988079071045
0.608595788478851318 0.217820003628730774 0.699999988079071045
0.600697934627532959 0.205980286002159119 0.699999988079071045
0.5928000807762146 0.174407690763473511 0.699999988079071045
0.573055386543273926 0.1507282555103302 0.699999988079071045
0.565157473087310791 0.146781682968139648 0.699999988079071045
0.549361705780029297 0.1507282555103302 0.699999988079071045
0.549361705780029297 0.154674828052520752 0.699999988079071045
0.541463851928710938 0.162567973136901855 0.699999988079071045
0.50592339038848877 0.154674828052520752 0.699999988079071045
0.49802553653717041 0.162567973136901855 0.699999988079071045
0.430893570184707642 0.146781682968139648 0.699999988079071045
0.422995686531066895 0.1507282555103302 0.699999988079071045
0.37165948748588562 0.20992685854434967 0.699999988079071045
0.355863749980926514 0.20992685854434967 0.699999988079071045
0.292680740356445312 0.162567973136901855 0.699999988079071045
0.288731783628463745 0.166514545679092407 0.699999988079071045
0.280833899974822998 0.166514545679092407 0.699999988079071045
0.644136250019073486 0.174407690763473511 0.699999988079071045
0.655983090400695801 0.166514545679092407 0.699999988079071045
0.655983090400695801 0.158621400594711304 0.699999988079071045
0.644136250019073486 0.158621400594711304 0.699999988079071045
0.640187323093414307 0.162567973136901855 0.699999988079071045
0.640187323093414307 0.166514545679092407 0.699999988079071045
0.636238396167755127 0.170461118221282959 0.699999988079071045
0.292680740356445312 0.194140568375587463 0.720000028610229492
0.332170099020004272 0.225713148713111877 0.720000028610229492
0.332170099020004272 0.229659721255302429 0.720000028610229492
0.359812676906585693 0.253339171409606934 0.720000028610229492
0.351914793252944946 0.308591187000274658 0.720000028610229492
0.359812676906585693 0.320430904626846313 0.720000028610229492
0.355863749980926514 0.391469240188598633 0.720000028610229492
0.363761633634567261 0.49802669882774353 0.720000028610229492
0.359812676906585693 0.501973271369934082 0.720000028610229492
0.355863749980926514 0.576958179473876953 0.720000028610229492
0.363761633634567261 0.62037050724029541 0.720000028610229492
0.375608444213867188 0.636156797409057617 0.720000028610229492
0.379557371139526367 0.636156797409057617 0.720000028610229492
0.411148875951766968 0.663782775402069092 0.720000028610229492
0.411148875951766968 0.667729377746582031 0.720000028610229492
0.419046759605407715 0.675622522830963135 0.720000028610229492
0.419046759605407715 0.679569065570831299 0.720000028610229492
0.422995686531066895 0.679569065570831299 0.720000028610229492
0.422995686531066895 0.675622522830963135 0.720000028610229492
0.442740380764007568 0.651943087577819824 0.720000028610229492
0.450638264417648315 0.647996485233306885 0.720000028610229492
0.474331885576248169 0.640103340148925781 0.720000028610229492
0.50592339038848877 0.600637614727020264 0.720000028610229492
0.509872317314147949 0.533545851707458496 0.720000028610229492
0.50592339038848877 0.490133553743362427 0.720000028610229492
0.509872317314147949 0.486186981201171875 0.720000028610229492
0.509872317314147949 0.442774683237075806 0.720000028610229492
0.509872317314147949 0.403308957815170288 0.720000028610229492
0.509872317314147949 0.363843232393264771 0.720000028610229492
0.509872317314147949 0.324377477169036865 0.720000028610229492
0.50592339038848877 0.328324049711227417 0.720000028610229492
0.50197446346282959 0.324377477169036865 0.720000028610229492
0.50197446346282959 0.300698041915893555 0.720000028610229492
0.553310692310333252 0.265178889036178589 0.720000028610229492
0.557259619235992432 0.269125461578369141 0.720000028610229492
0.557259619235992432 0.31253775954246521 0.720000028610229492
0.557259619235992432 0.352003484964370728 0.720000028610229492
0.557259619235992432 0.391469240188598633 0.720000028610229492
0.557259619235992432 0.415148675441741943 0.720000028610229492
0.561208546161651611 0.411202102899551392 0.720000028610229492
0.565157473087310791 0.415148675441741943 0.720000028610229492
0.557259619235992432 0.482240408658981323 0.720000028610229492
0.561208546161651611 0.486186981201171875 0.720000028610229492
0.565157473087310791 0.482240408658981323 0.720000028610229492
0.569106400012969971 0.482240408658981323 0.720000028610229492
0.569106400012969971 0.478293836116790771 0.720000028610229492
0.588851094245910645 0.450667828321456909 0.720000028610229492
0.5928000807762146 0.450667828321456909 0.720000028610229492
0.5928000807762146 0.442774683237075806 0.720000028610229492
0.612544775009155273 0.411202102899551392 0.720000028610229492
0.620442628860473633 0.40725553035736084 0.720000028610229492
0.640187323093414307 0.403308957815170288 0.720000028610229492
0.67177879810333252 0.352003484964370728 0.720000028610229492
0.675727784633636475 0.308591187000274658 0.720000028610229492
0.67177879810333252 0.304644614458084106 0.720000028610229492
0.65993201732635498 0.265178889036178589 0.720000028610229492
0.640187323093414307 0.241499438881874084 0.720000028610229492
0.632289469242095947 0.237552866339683533 0.720000028610229492
0.616493701934814453 0.241499438881874084 0.720000028610229492
0.612544775009155273 0.245446011424064636 0.720000028610229492
0.604646861553192139 0.233606293797492981 0.720000028610229492
0.608595788478851318 0.182300850749015808 0.720000028610229492
0.584902167320251465 0.1507282555103302 0.720000028610229492
0.577004313468933105 0.146781682968139648 0.720000028610229492
0.561208546161651611 0.1507282555103302 0.720000028610229492
0.549361705780029297 0.166514545679092407 0.720000028610229492
0.49802553653717041 0.158621400594711304 0.720000028610229492
0.490127652883529663 0.166514545679092407 0.720000028610229492
0.486178725957870483 0.166514545679092407 0.720000028610229492
0.474331885576248169 0.154674828052520752 0.720000028610229492
0.438791453838348389 0.146781682968139648 0.720000028610229492
0.430893570184707642 0.1507282555103302 0.720000028610229492
0.379557371139526367 0.205980286002159119 0.720000028610229492
0.355863749980926514 0.202033713459968567 0.720000028610229492
0.34006798267364502 0.190193995833396912 0.720000028610229492
0.292680740356445312 0.178354263305664062 0.720000028610229492
0.33611905574798584 0.233606293797492981 0.740000009536743164
0.344016939401626587 0.241499438881874084 0.740000009536743164
0.359812676906585693 0.245446011424064636 0.740000009536743164
0.363761633634567261 0.249392583966255188 0.740000009536743164
0.355863749980926514 0.288858324289321899 0.740000009536743164
0.359812676906585693 0.292804896831512451 0.740000009536743164
0.359812676906585693 0.308591187000274658 0.740000009536743164
0.375608444213867188 0.328324049711227417 0.740000009536743164
0.355863749980926514 0.434881538152694702 0.740000009536743164
0.355863749980926514 0.47434726357460022 0.740000009536743164
0.355863749980926514 0.513813018798828125 0.740000009536743164
0.355863749980926514 0.553278744220733643 0.740000009536743164
0.363761633634567261 0.608530759811401367 0.740000009536743164
0.391404181718826294 0.640103340148925781 0.740000009536743164
0.395353138446807861 0.640103340148925781 0.740000009536743164
0.419046759605407715 0.671675920486450195 0.740000009536743164
0.426944643259048462 0.671675920486450195 0.740000009536743164
0.430893570184707642 0.667729377746582031 0.740000009536743164
0.434842526912689209 0.651943087577819824 0.740000009536743164
0.442740380764007568 0.644049942493438721 0.740000009536743164
0.474331885576248169 0.632210195064544678 0.740000009536743164
0.50592339038848877 0.588797926902770996 0.740000009536743164
0.513821303844451904 0.494080126285552979 0.740000009536743164
0.513821303844451904 0.454614400863647461 0.740000009536743164
0.513821303844451904 0.43093496561050415 0.740000009536743164
0.509872317314147949 0.426988393068313599 0.740000009536743164
0.513821303844451904 0.423041820526123047 0.740000009536743164
0.513821303844451904 0.379629522562026978 0.740000009536743164
0.513821303844451904 0.340163767337799072 0.740000009536743164
0.513821303844451904 0.304644614458084106 0.740000009536743164
0.509872317314147949 0.308591187000274658 0.740000009536743164
0.50197446346282959 0.344110339879989624 0.740000009536743164
0.49802553653717041 0.348056912422180176 0.740000009536743164
0.494076579809188843 0.344110339879989624 0.740000009536743164
0.486178725957870483 0.300698041915893555 0.740000009536743164
0.490127652883529663 0.292804896831512451 0.740000009536743164
0.513821303844451904 0.273072034120559692 0.740000009536743164
0.604646861553192139 0.245446011424064636 0.740000009536743164
0.620442628860473633 0.221766576170921326 0.740000009536743164
0.612544775009155273 0.166514545679092407 0.740000009536743164
0.588851094245910645 0.146781682968139648 0.740000009536743164
0.584902167320251465 0.1507282555103302 0.740000009536743164
0.549361705780029297 0.162567973136901855 0.740000009536743164
0.549361705780029297 0.178354263305664062 0.740000009536743164
0.545412778854370117 0.182300850749015808 0.740000009536743164
0.541463851928710938 0.182300850749015808 0.740000009536743164
0.525668084621429443 0.166514545679092407 0.740000009536743164
0.446689337491989136 0.146781682968139648 0.740000009536743164
0.383506327867507935 0.198087140917778015 0.740000009536743164
0.34006798267364502 0.198087140917778015 0.740000009536743164
0.332170099020004272 0.198087140917778015 0.740000009536743164
0.328221172094345093 0.202033713459968567 0.740000009536743164
0.584902167320251465 0.308591187000274658 0.740000009536743164
0.584902167320251465 0.348056912422180176 0.740000009536743164
0.584902167320251465 0.387522667646408081 0.740000009536743164
0.588851094245910645 0.423041820526123047 0.740000009536743164
0.608595788478851318 0.419095247983932495 0.740000009536743164
0.655983090400695801 0.383576095104217529 0.740000009536743164
0.67177879810333252 0.316484332084655762 0.740000009536743164
0.66782987117767334 0.31253775954246521 0.740000009536743164
0.66388094425201416 0.292804896831512451 0.740000009536743164
0.648085176944732666 0.273072034120559692 0.740000009536743164
0.640187323093414307 0.269125461578369141 0.740000009536743164
0.628340482711791992 0.273072034120559692 0.740000009536743164
0.624391555786132812 0.277018606662750244 0.740000009536743164
0.620442628860473633 0.273072034120559692 0.740000009536743164
0.620442628860473633 0.269125461578369141 0.740000009536743164
0.584902167320251465 0.269125461578369141 0.740000009536743164
0.347965866327285767 0.221766576170921326 0.759999990463256836
0.363761633634567261 0.233606293797492981 0.759999990463256836
0.37165948748588562 0.233606293797492981 0.759999990463256836
0.375608444213867188 0.237552866339683533 0.759999990463256836
0.37165948748588562 0.280965179204940796 0.759999990463256836
0.379557371139526367 0.288858324289321899 0.759999990463256836
0.379557371139526367 0.292804896831512451 0.759999990463256836
0.387455254793167114 0.292804896831512451 0.759999990463256836
