ply
format ascii 1.0
element vertex 779
property float x
property float y
property float z
end_header
0.438835591077804565 0.55903327465057373 0.300000011920928955
0.442781686782836914 0.523613333702087402 0.300000011920928955
0.42699730396270752 0.511806666851043701 0.300000011920928955
0.411212950944900513 0.515742182731628418 0.300000011920928955
0.395428568124771118 0.535419940948486328 0.300000011920928955
0.395428568124771118 0.543291032314300537 0.300000011920928955
0.391482502222061157 0.547226607799530029 0.300000011920928955
0.395428568124771118 0.429160088300704956 0.300000011920928955
0.399374663829803467 0.448837846517562866 0.300000011920928955
0.415159046649932861 0.46064448356628418 0.300000011920928955
0.430943399667739868 0.46064448356628418 0.300000011920928955
0.442781686782836914 0.448837846517562866 0.300000011920928955
0.446727782487869263 0.397675693035125732 0.300000011920928955
0.438835591077804565 0.389804571866989136 0.300000011920928955
0.411212950944900513 0.385869026184082031 0.300000011920928955
0.403320759534835815 0.389804571866989136 0.300000011920928955
0.399374663829803467 0.39374011754989624 0.300000011920928955
0.399374663829803467 0.401611238718032837 0.300000011920928955
0.395428568124771118 0.405546784400939941 0.300000011920928955
0.454619944095611572 0.684970855712890625 0.300000011920928955
0.470404326915740967 0.696777522563934326 0.300000011920928955
0.474350392818450928 0.696777522563934326 0.300000011920928955
0.478296488523483276 0.692842006683349609 0.300000011920928955
0.470404326915740967 0.649550914764404297 0.300000011920928955
0.466458231210708618 0.64561539888381958 0.300000011920928955
0.46251213550567627 0.64561539888381958 0.300000011920928955
0.450673848390579224 0.657422006130218506 0.300000011920928955
0.561164438724517822 0.185155943036079407 0.300000011920928955
0.565110504627227783 0.189091488718986511 0.300000011920928955
0.588787078857421875 0.181220397353172302 0.300000011920928955
0.588787078857421875 0.169413745403289795 0.300000011920928955
0.584840953350067139 0.165478184819221497 0.300000011920928955
0.57300269603729248 0.165478184819221497 0.300000011920928955
0.561164438724517822 0.177284836769104004 0.300000011920928955
0.565110504627227783 0.826650679111480713 0.300000011920928955
0.584840953350067139 0.842392921447753906 0.300000011920928955
0.600625336170196533 0.842392921447753906 0.300000011920928955
0.600625336170196533 0.830586254596710205 0.300000011920928955
0.580894887447357178 0.810908496379852295 0.300000011920928955
0.565110504627227783 0.810908496379852295 0.300000011920928955
0.561164438724517822 0.814844071865081787 0.300000011920928955
0.391482502222061157 0.562968790531158447 0.319999992847442627
0.395428568124771118 0.574775457382202148 0.319999992847442627
0.403320759534835815 0.582646548748016357 0.319999992847442627
0.403320759534835815 0.58658212423324585 0.319999992847442627
0.434889495372772217 0.590517640113830566 0.319999992847442627
0.442781686782836914 0.582646548748016357 0.319999992847442627
0.446727782487869263 0.551162183284759521 0.319999992847442627
0.442781686782836914 0.547226607799530029 0.319999992847442627
0.446727782487869263 0.523613333702087402 0.319999992847442627
0.442781686782836914 0.515742182731628418 0.319999992847442627
0.430943399667739868 0.507871091365814209 0.319999992847442627
0.407266855239868164 0.511806666851043701 0.319999992847442627
0.395428568124771118 0.527548849582672119 0.319999992847442627
0.395428568124771118 0.535419940948486328 0.319999992847442627
0.391482502222061157 0.53935551643371582 0.319999992847442627
0.395428568124771118 0.425224542617797852 0.319999992847442627
0.399374663829803467 0.444902300834655762 0.319999992847442627
0.415159046649932861 0.46064448356628418 0.319999992847442627
0.438835591077804565 0.452773392200469971 0.319999992847442627
0.450673848390579224 0.405546784400939941 0.319999992847442627
0.430943399667739868 0.389804571866989136 0.319999992847442627
0.415159046649932861 0.385869026184082031 0.319999992847442627
0.411212950944900513 0.389804571866989136 0.319999992847442627
0.403320759534835815 0.389804571866989136 0.319999992847442627
0.399374663829803467 0.39374011754989624 0.319999992847442627
0.399374663829803467 0.397675693035125732 0.319999992847442627
0.395428568124771118 0.401611238718032837 0.319999992847442627
0.442781686782836914 0.673164248466491699 0.319999992847442627
0.458566039800643921 0.688906431198120117 0.319999992847442627
0.470404326915740967 0.688906431198120117 0.319999992847442627
0.474350392818450928 0.673164248466491699 0.319999992847442627
0.470404326915740967 0.669228672981262207 0.319999992847442627
0.470404326915740967 0.641679823398590088 0.319999992847442627
0.458566039800643921 0.641679823398590088 0.319999992847442627
0.442781686782836914 0.657422006130218506 0.319999992847442627
0.549326121807098389 0.818779587745666504 0.319999992847442627
0.565110504627227783 0.838457345962524414 0.319999992847442627
0.588787078857421875 0.838457345962524414 0.319999992847442627
0.592733144760131836 0.834521830081939697 0.319999992847442627
0.588787078857421875 0.830586254596710205 0.319999992847442627
0.588787078857421875 0.822715163230895996 0.319999992847442627
0.57300269603729248 0.803037405014038086 0.319999992847442627
0.549326121807098389 0.806972980499267578 0.319999992847442627
0.553272247314453125 0.200898140668869019 0.319999992847442627
0.588787078857421875 0.196962594985961914 0.319999992847442627
0.592733144760131836 0.181220397353172302 0.319999992847442627
0.580894887447357178 0.169413745403289795 0.319999992847442627
0.569056570529937744 0.169413745403289795 0.319999992847442627
0.553272247314453125 0.185155943036079407 0.319999992847442627
0.375698119401931763 0.448837846517562866 0.340000003576278687
0.38359031081199646 0.456708937883377075 0.340000003576278687
0.387536406517028809 0.452773392200469971 0.340000003576278687
0.415159046649932861 0.452773392200469971 0.340000003576278687
0.41910514235496521 0.452773392200469971 0.340000003576278687
0.430943399667739868 0.44096672534942627 0.340000003576278687
0.434889495372772217 0.417353421449661255 0.340000003576278687
0.430943399667739868 0.41341787576675415 0.340000003576278687
0.430943399667739868 0.405546784400939941 0.340000003576278687
0.41910514235496521 0.39374011754989624 0.340000003576278687
0.399374663829803467 0.39374011754989624 0.340000003576278687
0.371752023696899414 0.429160088300704956 0.340000003576278687
0.387536406517028809 0.562968790531158447 0.340000003576278687
0.407266855239868164 0.578711032867431641 0.340000003576278687
0.434889495372772217 0.582646548748016357 0.340000003576278687
0.442781686782836914 0.574775457382202148 0.340000003576278687
0.442781686782836914 0.547226607799530029 0.340000003576278687
0.438835591077804565 0.51967775821685791 0.340000003576278687
0.434889495372772217 0.515742182731628418 0.340000003576278687
0.403320759534835815 0.51967775821685791 0.340000003576278687
0.395428568124771118 0.531484425067901611 0.340000003576278687
0.395428568124771118 0.53935551643371582 0.340000003576278687
0.387536406517028809 0.547226607799530029 0.340000003576278687
0.434889495372772217 0.669228672981262207 0.340000003576278687
0.454619944095611572 0.684970855712890625 0.340000003576278687
0.466458231210708618 0.684970855712890625 0.340000003576278687
0.474350392818450928 0.677099764347076416 0.340000003576278687
0.470404326915740967 0.629873156547546387 0.340000003576278687
0.450673848390579224 0.633808732032775879 0.340000003576278687
0.434889495372772217 0.657422006130218506 0.340000003576278687
0.529595673084259033 0.810908496379852295 0.340000003576278687
0.553272247314453125 0.826650679111480713 0.340000003576278687
0.565110504627227783 0.826650679111480713 0.340000003576278687
0.569056570529937744 0.822715163230895996 0.340000003576278687
0.569056570529937744 0.814844071865081787 0.340000003576278687
0.53748786449432373 0.791230738162994385 0.340000003576278687
0.529595673084259033 0.791230738162994385 0.340000003576278687
0.525649607181549072 0.795166313648223877 0.340000003576278687
0.545380055904388428 0.204833701252937317 0.340000003576278687
0.580894887447357178 0.208769246935844421 0.340000003576278687
0.592733144760131836 0.200898140668869019 0.340000003576278687
0.596679210662841797 0.200898140668869019 0.340000003576278687
0.596679210662841797 0.189091488718986511 0.340000003576278687
0.576948761940002441 0.173349291086196899 0.340000003576278687
0.553272247314453125 0.177284836769104004 0.340000003576278687
0.545380055904388428 0.185155943036079407 0.340000003576278687
0.371752023696899414 0.456708937883377075 0.360000014305114746
0.375698119401931763 0.46064448356628418 0.360000014305114746
0.403320759534835815 0.452773392200469971 0.360000014305114746
0.407266855239868164 0.456708937883377075 0.360000014305114746
0.42699730396270752 0.456708937883377075 0.360000014305114746
0.434889495372772217 0.444902300834655762 0.360000014305114746
0.42699730396270752 0.39374011754989624 0.360000014305114746
0.415159046649932861 0.381933480501174927 0.360000014305114746
0.411212950944900513 0.385869026184082031 0.360000014305114746
0.379644215106964111 0.397675693035125732 0.360000014305114746
0.363859862089157104 0.417353421449661255 0.360000014305114746
0.375698119401931763 0.578711032867431641 0.360000014305114746
0.387536406517028809 0.58658212423324585 0.360000014305114746
0.42699730396270752 0.578711032867431641 0.360000014305114746
0.430943399667739868 0.574775457382202148 0.360000014305114746
0.430943399667739868 0.547226607799530029 0.360000014305114746
0.42699730396270752 0.531484425067901611 0.360000014305114746
0.411212950944900513 0.515742182731628418 0.360000014305114746
0.403320759534835815 0.515742182731628418 0.360000014305114746
0.375698119401931763 0.53935551643371582 0.360000014305114746
0.371752023696899414 0.547226607799530029 0.360000014305114746
0.42699730396270752 0.66529315710067749 0.360000014305114746
0.446727782487869263 0.681035339832305908 0.360000014305114746
0.470404326915740967 0.681035339832305908 0.360000014305114746
0.478296488523483276 0.669228672981262207 0.360000014305114746
0.474350392818450928 0.641679823398590088 0.360000014305114746
0.478296488523483276 0.637744247913360596 0.360000014305114746
0.474350392818450928 0.622002065181732178 0.360000014305114746
0.470404326915740967 0.618066549301147461 0.360000014305114746
0.446727782487869263 0.622002065181732178 0.360000014305114746
0.430943399667739868 0.641679823398590088 0.360000014305114746
0.430943399667739868 0.649550914764404297 0.360000014305114746
0.42699730396270752 0.653486490249633789 0.360000014305114746
0.517757415771484375 0.799101829528808594 0.360000014305114746
0.53748786449432373 0.814844071865081787 0.360000014305114746
0.549326121807098389 0.814844071865081787 0.360000014305114746
0.545380055904388428 0.803037405014038086 0.360000014305114746
0.521703481674194336 0.779424071311950684 0.360000014305114746
0.517757415771484375 0.779424071311950684 0.360000014305114746
0.513811290264129639 0.783359646797180176 0.360000014305114746
0.545380055904388428 0.200898140668869019 0.360000014305114746
0.557218313217163086 0.208769246935844421 0.360000014305114746
0.580894887447357178 0.204833701252937317 0.360000014305114746
0.588787078857421875 0.196962594985961914 0.360000014305114746
0.588787078857421875 0.19302704930305481 0.360000014305114746
0.576948761940002441 0.185155943036079407 0.360000014305114746
0.549326121807098389 0.189091488718986511 0.360000014305114746
0.545380055904388428 0.19302704930305481 0.360000014305114746
0.367805957794189453 0.452773392200469971 0.379999995231628418
0.375698119401931763 0.46064448356628418 0.379999995231628418
0.423051208257675171 0.452773392200469971 0.379999995231628418
0.430943399667739868 0.452773392200469971 0.379999995231628418
0.434889495372772217 0.44096672534942627 0.379999995231628418
0.430943399667739868 0.437031179666519165 0.379999995231628418
0.423051208257675171 0.389804571866989136 0.379999995231628418
0.395428568124771118 0.385869026184082031 0.379999995231628418
0.363859862089157104 0.405546784400939941 0.379999995231628418
0.363859862089157104 0.41341787576675415 0.379999995231628418
0.359913766384124756 0.417353421449661255 0.379999995231628418
0.367805957794189453 0.55903327465057373 0.379999995231628418
0.371752023696899414 0.58658212423324585 0.379999995231628418
0.38359031081199646 0.590517640113830566 0.379999995231628418
0.387536406517028809 0.58658212423324585 0.379999995231628418
0.430943399667739868 0.578711032867431641 0.379999995231628418
0.434889495372772217 0.551162183284759521 0.379999995231628418
0.430943399667739868 0.547226607799530029 0.379999995231628418
0.423051208257675171 0.515742182731628418 0.379999995231628418
0.41910514235496521 0.511806666851043701 0.379999995231628418
0.387536406517028809 0.515742182731628418 0.379999995231628418
0.367805957794189453 0.535419940948486328 0.379999995231628418
0.423051208257675171 0.66529315710067749 0.379999995231628418
0.450673848390579224 0.684970855712890625 0.379999995231628418
0.470404326915740967 0.681035339832305908 0.379999995231628418
0.482242584228515625 0.669228672981262207 0.379999995231628418
0.474350392818450928 0.618066549301147461 0.379999995231628418
0.470404326915740967 0.614130973815917969 0.379999995231628418
0.442781686782836914 0.618066549301147461 0.379999995231628418
0.42699730396270752 0.637744247913360596 0.379999995231628418
0.42699730396270752 0.64561539888381958 0.379999995231628418
0.423051208257675171 0.649550914764404297 0.379999995231628418
0.509865224361419678 0.795166313648223877 0.379999995231628418
0.525649607181549072 0.806972980499267578 0.379999995231628418
0.529595673084259033 0.803037405014038086 0.379999995231628418
0.529595673084259033 0.795166313648223877 0.379999995231628418
0.513811290264129639 0.771552979946136475 0.379999995231628418
0.513811290264129639 0.767617464065551758 0.379999995231628418
0.505919158458709717 0.767617464065551758 0.379999995231628418
0.53354179859161377 0.216640353202819824 0.379999995231628418
0.53748786449432373 0.220575898885726929 0.379999995231628418
0.57300269603729248 0.216640353202819824 0.379999995231628418
0.584840953350067139 0.216640353202819824 0.379999995231628418
0.588787078857421875 0.212704792618751526 0.379999995231628418
0.588787078857421875 0.196962594985961914 0.379999995231628418
0.576948761940002441 0.185155943036079407 0.379999995231628418
0.53748786449432373 0.189091488718986511 0.379999995231628418
0.53354179859161377 0.19302704930305481 0.379999995231628418
0.359913766384124756 0.433095633983612061 0.400000005960464478
0.363859862089157104 0.448837846517562866 0.400000005960464478
0.371752023696899414 0.456708937883377075 0.400000005960464478
0.415159046649932861 0.448837846517562866 0.400000005960464478
0.41910514235496521 0.444902300834655762 0.400000005960464478
0.415159046649932861 0.397675693035125732 0.400000005960464478
0.403320759534835815 0.389804571866989136 0.400000005960464478
0.371752023696899414 0.39374011754989624 0.400000005960464478
0.359913766384124756 0.409482330083847046 0.400000005960464478
0.363859862089157104 0.555097699165344238 0.400000005960464478
0.371752023696899414 0.58658212423324585 0.400000005960464478
0.42699730396270752 0.574775457382202148 0.400000005960464478
0.434889495372772217 0.562968790531158447 0.400000005960464478
0.430943399667739868 0.55903327465057373 0.400000005960464478
0.41910514235496521 0.51967775821685791 0.400000005960464478
0.411212950944900513 0.511806666851043701 0.400000005960464478
0.375698119401931763 0.515742182731628418 0.400000005960464478
0.363859862089157104 0.527548849582672119 0.400000005960464478
0.363859862089157104 0.543291032314300537 0.400000005960464478
0.359913766384124756 0.547226607799530029 0.400000005960464478
0.42699730396270752 0.661357581615447998 0.400000005960464478
0.454619944095611572 0.681035339832305908 0.400000005960464478
0.470404326915740967 0.677099764347076416 0.400000005960464478
0.478296488523483276 0.669228672981262207 0.400000005960464478
0.470404326915740967 0.633808732032775879 0.400000005960464478
0.450673848390579224 0.618066549301147461 0.400000005960464478
0.434889495372772217 0.618066549301147461 0.400000005960464478
0.423051208257675171 0.629873156547546387 0.400000005960464478
0.49802696704864502 0.787295222282409668 0.400000005960464478
0.509865224361419678 0.795166313648223877 0.400000005960464478
0.517757415771484375 0.795166313648223877 0.400000005960464478
0.521703481674194336 0.799101829528808594 0.400000005960464478
0.509865224361419678 0.759746372699737549 0.400000005960464478
0.50197303295135498 0.751875221729278564 0.400000005960464478
0.49802696704864502 0.751875221729278564 0.400000005960464478
0.494080871343612671 0.755810797214508057 0.400000005960464478
0.53354179859161377 0.220575898885726929 0.400000005960464478
0.584840953350067139 0.216640353202819824 0.400000005960464478
0.584840953350067139 0.212704792618751526 0.400000005960464478
0.588787078857421875 0.208769246935844421 0.400000005960464478
0.584840953350067139 0.204833701252937317 0.400000005960464478
0.584840953350067139 0.196962594985961914 0.400000005960464478
0.569056570529937744 0.185155943036079407 0.400000005960464478
0.53748786449432373 0.19302704930305481 0.400000005960464478
0.53354179859161377 0.196962594985961914 0.400000005960464478
0.359913766384124756 0.444902300834655762 0.419999986886978149
0.367805957794189453 0.452773392200469971 0.419999986886978149
0.399374663829803467 0.444902300834655762 0.419999986886978149
0.411212950944900513 0.433095633983612061 0.419999986886978149
0.411212950944900513 0.421288996934890747 0.419999986886978149
0.395428568124771118 0.401611238718032837 0.419999986886978149
0.371752023696899414 0.39374011754989624 0.419999986886978149
0.355967670679092407 0.41341787576675415 0.419999986886978149
0.371752023696899414 0.578711032867431641 0.419999986886978149
0.375698119401931763 0.582646548748016357 0.419999986886978149
0.387536406517028809 0.582646548748016357 0.419999986886978149
0.41910514235496521 0.55903327465057373 0.419999986886978149
0.423051208257675171 0.551162183284759521 0.419999986886978149
0.415159046649932861 0.531484425067901611 0.419999986886978149
0.391482502222061157 0.511806666851043701 0.419999986886978149
0.367805957794189453 0.515742182731628418 0.419999986886978149
0.359913766384124756 0.531484425067901611 0.419999986886978149
0.411212950944900513 0.653486490249633789 0.419999986886978149
0.423051208257675171 0.66529315710067749 0.419999986886978149
0.458566039800643921 0.661357581615447998 0.419999986886978149
0.466458231210708618 0.649550914764404297 0.419999986886978149
0.458566039800643921 0.614130973815917969 0.419999986886978149
0.450673848390579224 0.60625988245010376 0.419999986886978149
0.438835591077804565 0.60625988245010376 0.419999986886978149
0.407266855239868164 0.629873156547546387 0.419999986886978149
0.482242584228515625 0.767617464065551758 0.419999986886978149
0.513811290264129639 0.791230738162994385 0.419999986886978149
0.505919158458709717 0.744004130363464355 0.419999986886978149
0.490134775638580322 0.732197463512420654 0.419999986886978149
0.486188679933547974 0.732197463512420654 0.419999986886978149
0.478296488523483276 0.740068614482879639 0.419999986886978149
0.53354179859161377 0.220575898885726929 0.419999986886978149
0.53748786449432373 0.224511444568634033 0.419999986886978149
0.576948761940002441 0.216640353202819824 0.419999986886978149
0.580894887447357178 0.212704792618751526 0.419999986886978149
0.576948761940002441 0.196962594985961914 0.419999986886978149
0.565110504627227783 0.189091488718986511 0.419999986886978149
0.53748786449432373 0.196962594985961914 0.419999986886978149
0.53354179859161377 0.200898140668869019 0.419999986886978149
0.355967670679092407 0.433095633983612061 0.439999997615814209
0.355967670679092407 0.444902300834655762 0.439999997615814209
0.379644215106964111 0.448837846517562866 0.439999997615814209
0.387536406517028809 0.444902300834655762 0.439999997615814209
0.403320759534835815 0.433095633983612061 0.439999997615814209
0.403320759534835815 0.425224542617797852 0.439999997615814209
0.379644215106964111 0.397675693035125732 0.439999997615814209
0.363859862089157104 0.397675693035125732 0.439999997615814209
0.363859862089157104 0.401611238718032837 0.439999997615814209
0.355967670679092407 0.409482330083847046 0.439999997615814209
0.359913766384124756 0.547226607799530029 0.439999997615814209
0.363859862089157104 0.562968790531158447 0.439999997615814209
0.375698119401931763 0.574775457382202148 0.439999997615814209
0.391482502222061157 0.570839941501617432 0.439999997615814209
0.411212950944900513 0.551162183284759521 0.439999997615814209
0.411212950944900513 0.53935551643371582 0.439999997615814209
0.379644215106964111 0.511806666851043701 0.439999997615814209
0.363859862089157104 0.515742182731628418 0.439999997615814209
0.363859862089157104 0.51967775821685791 0.439999997615814209
0.359913766384124756 0.523613333702087402 0.439999997615814209
0.407266855239868164 0.657422006130218506 0.439999997615814209
0.41910514235496521 0.669228672981262207 0.439999997615814209
0.46251213550567627 0.661357581615447998 0.439999997615814209
0.470404326915740967 0.649550914764404297 0.439999997615814209
0.470404326915740967 0.629873156547546387 0.439999997615814209
0.446727782487869263 0.602324306964874268 0.439999997615814209
0.403320759534835815 0.614130973815917969 0.439999997615814209
0.399374663829803467 0.618066549301147461 0.439999997615814209
0.399374663829803467 0.622002065181732178 0.439999997615814209
0.395428568124771118 0.62593764066696167 0.439999997615814209
0.478296488523483276 0.763681888580322266 0.439999997615814209
0.49802696704864502 0.779424071311950684 0.439999997615814209
0.50197303295135498 0.779424071311950684 0.439999997615814209
0.509865224361419678 0.767617464065551758 0.439999997615814209
0.513811290264129639 0.751875221729278564 0.439999997615814209
0.509865224361419678 0.747939705848693848 0.439999997615814209
0.50197303295135498 0.720390856266021729 0.439999997615814209
0.494080871343612671 0.71251976490020752 0.439999997615814209
0.474350392818450928 0.716455280780792236 0.439999997615814209
0.474350392818450928 0.720390856266021729 0.439999997615814209
0.470404326915740967 0.724326372146606445 0.439999997615814209
0.529595673084259033 0.232382550835609436 0.439999997615814209
0.565110504627227783 0.228447005152702332 0.439999997615814209
0.576948761940002441 0.212704792618751526 0.439999997615814209
0.57300269603729248 0.200898140668869019 0.439999997615814209
0.557218313217163086 0.196962594985961914 0.439999997615814209
0.553272247314453125 0.19302704930305481 0.439999997615814209
0.549326121807098389 0.196962594985961914 0.439999997615814209
0.541433930397033691 0.196962594985961914 0.439999997615814209
0.525649607181549072 0.216640353202819824 0.439999997615814209
0.355967670679092407 0.444902300834655762 0.460000008344650269
0.38359031081199646 0.444902300834655762 0.460000008344650269
0.399374663829803467 0.429160088300704956 0.460000008344650269
0.395428568124771118 0.417353421449661255 0.460000008344650269
0.391482502222061157 0.417353421449661255 0.460000008344650269
0.371752023696899414 0.397675693035125732 0.460000008344650269
0.359913766384124756 0.397675693035125732 0.460000008344650269
0.352021574974060059 0.429160088300704956 0.460000008344650269
0.359913766384124756 0.555097699165344238 0.460000008344650269
0.371752023696899414 0.566904366016387939 0.460000008344650269
0.387536406517028809 0.562968790531158447 0.460000008344650269
0.403320759534835815 0.547226607799530029 0.460000008344650269
0.403320759534835815 0.535419940948486328 0.460000008344650269
0.375698119401931763 0.511806666851043701 0.460000008344650269
0.363859862089157104 0.511806666851043701 0.460000008344650269
0.359913766384124756 0.515742182731628418 0.460000008344650269
0.359913766384124756 0.523613333702087402 0.460000008344650269
0.355967670679092407 0.527548849582672119 0.460000008344650269
0.399374663829803467 0.64561539888381958 0.460000008344650269
0.41910514235496521 0.66529315710067749 0.460000008344650269
0.442781686782836914 0.661357581615447998 0.460000008344650269
0.458566039800643921 0.649550914764404297 0.460000008344650269
0.458566039800643921 0.629873156547546387 0.460000008344650269
0.438835591077804565 0.60625988245010376 0.460000008344650269
0.430943399667739868 0.602324306964874268 0.460000008344650269
0.407266855239868164 0.60625988245010376 0.460000008344650269
0.395428568124771118 0.618066549301147461 0.460000008344650269
0.434889495372772217 0.724326372146606445 0.460000008344650269
0.442781686782836914 0.732197463512420654 0.460000008344650269
0.458566039800643921 0.736133038997650146 0.460000008344650269
0.478296488523483276 0.755810797214508057 0.460000008344650269
0.482242584228515625 0.771552979946136475 0.460000008344650269
0.494080871343612671 0.775488555431365967 0.460000008344650269
0.505919158458709717 0.767617464065551758 0.460000008344650269
0.509865224361419678 0.767617464065551758 0.460000008344650269
0.513811290264129639 0.744004130363464355 0.460000008344650269
0.509865224361419678 0.736133038997650146 0.460000008344650269
0.482242584228515625 0.71251976490020752 0.460000008344650269
0.474350392818450928 0.71251976490020752 0.460000008344650269
0.466458231210708618 0.704648613929748535 0.460000008344650269
0.446727782487869263 0.704648613929748535 0.460000008344650269
0.434889495372772217 0.716455280780792236 0.460000008344650269
0.517757415771484375 0.244189202785491943 0.460000008344650269
0.521703481674194336 0.248124748468399048 0.460000008344650269
0.561164438724517822 0.240253657102584839 0.460000008344650269
0.57300269603729248 0.228447005152702332 0.460000008344650269
0.569056570529937744 0.204833701252937317 0.460000008344650269
0.549326121807098389 0.196962594985961914 0.460000008344650269
0.545380055904388428 0.200898140668869019 0.460000008344650269
0.53748786449432373 0.200898140668869019 0.460000008344650269
0.517757415771484375 0.220575898885726929 0.460000008344650269
0.352021574974060059 0.433095633983612061 0.47999998927116394
0.352021574974060059 0.437031179666519165 0.47999998927116394
0.363859862089157104 0.444902300834655762 0.47999998927116394
0.387536406517028809 0.44096672534942627 0.47999998927116394
0.395428568124771118 0.433095633983612061 0.47999998927116394
0.391482502222061157 0.417353421449661255 0.47999998927116394
0.367805957794189453 0.397675693035125732 0.47999998927116394
0.359913766384124756 0.397675693035125732 0.47999998927116394
0.355967670679092407 0.401611238718032837 0.47999998927116394
0.355967670679092407 0.405546784400939941 0.47999998927116394
0.352021574974060059 0.409482330083847046 0.47999998927116394
0.355967670679092407 0.543291032314300537 0.47999998927116394
0.355967670679092407 0.551162183284759521 0.47999998927116394
0.363859862089157104 0.55903327465057373 0.47999998927116394
0.379644215106964111 0.55903327465057373 0.47999998927116394
0.387536406517028809 0.551162183284759521 0.47999998927116394
0.391482502222061157 0.551162183284759521 0.47999998927116394
0.395428568124771118 0.531484425067901611 0.47999998927116394
0.391482502222061157 0.523613333702087402 0.47999998927116394
0.375698119401931763 0.511806666851043701 0.47999998927116394
0.359913766384124756 0.511806666851043701 0.47999998927116394
0.355967670679092407 0.515742182731628418 0.47999998927116394
0.355967670679092407 0.531484425067901611 0.47999998927116394
0.352021574974060059 0.535419940948486328 0.47999998927116394
0.391482502222061157 0.633808732032775879 0.47999998927116394
0.407266855239868164 0.649550914764404297 0.47999998927116394
0.42699730396270752 0.64561539888381958 0.47999998927116394
0.434889495372772217 0.633808732032775879 0.47999998927116394
0.430943399667739868 0.610195398330688477 0.47999998927116394
0.41910514235496521 0.60625988245010376 0.47999998927116394
0.415159046649932861 0.602324306964874268 0.47999998927116394
0.411212950944900513 0.60625988245010376 0.47999998927116394
0.395428568124771118 0.60625988245010376 0.47999998927116394
0.391482502222061157 0.610195398330688477 0.47999998927116394
0.423051208257675171 0.724326372146606445 0.47999998927116394
0.446727782487869263 0.744004130363464355 0.47999998927116394
0.458566039800643921 0.744004130363464355 0.47999998927116394
0.474350392818450928 0.755810797214508057 0.47999998927116394
0.486188679933547974 0.755810797214508057 0.47999998927116394
0.490134775638580322 0.759746372699737549 0.47999998927116394
0.490134775638580322 0.763681888580322266 0.47999998927116394
0.49802696704864502 0.755810797214508057 0.47999998927116394
0.494080871343612671 0.751875221729278564 0.47999998927116394
0.490134775638580322 0.732197463512420654 0.47999998927116394
0.494080871343612671 0.728261947631835938 0.47999998927116394
0.494080871343612671 0.720390856266021729 0.47999998927116394
0.470404326915740967 0.692842006683349609 0.47999998927116394
0.46251213550567627 0.688906431198120117 0.47999998927116394
0.430943399667739868 0.696777522563934326 0.47999998927116394
0.423051208257675171 0.704648613929748535 0.47999998927116394
0.509865224361419678 0.248124748468399048 0.47999998927116394
0.509865224361419678 0.252060294151306152 0.47999998927116394
0.517757415771484375 0.259931415319442749 0.47999998927116394
0.525649607181549072 0.259931415319442749 0.47999998927116394
0.529595673084259033 0.263866961002349854 0.47999998927116394
0.53354179859161377 0.259931415319442749 0.47999998927116394
0.565110504627227783 0.252060294151306152 0.47999998927116394
0.57300269603729248 0.244189202785491943 0.47999998927116394
0.576948761940002441 0.224511444568634033 0.47999998927116394
0.569056570529937744 0.212704792618751526 0.47999998927116394
0.569056570529937744 0.208769246935844421 0.47999998927116394
0.541433930397033691 0.200898140668869019 0.47999998927116394
0.509865224361419678 0.224511444568634033 0.47999998927116394
0.34807547926902771 0.433095633983612061 0.5
0.355967670679092407 0.44096672534942627 0.5
0.391482502222061157 0.437031179666519165 0.5
0.391482502222061157 0.433095633983612061 0.5
0.395428568124771118 0.429160088300704956 0.5
0.38359031081199646 0.409482330083847046 0.5
0.379644215106964111 0.409482330083847046 0.5
0.363859862089157104 0.397675693035125732 0.5
0.359913766384124756 0.397675693035125732 0.5
0.34807547926902771 0.41341787576675415 0.5
0.352021574974060059 0.53935551643371582 0.5
0.352021574974060059 0.543291032314300537 0.5
0.363859862089157104 0.555097699165344238 0.5
0.379644215106964111 0.551162183284759521 0.5
0.391482502222061157 0.53935551643371582 0.5
0.387536406517028809 0.51967775821685791 0.5
0.367805957794189453 0.507871091365814209 0.5
0.359913766384124756 0.507871091365814209 0.5
0.352021574974060059 0.515742182731628418 0.5
0.391482502222061157 0.637744247913360596 0.5
0.411212950944900513 0.641679823398590088 0.5
0.423051208257675171 0.629873156547546387 0.5
0.423051208257675171 0.610195398330688477 0.5
0.41910514235496521 0.610195398330688477 0.5
0.411212950944900513 0.602324306964874268 0.5
0.387536406517028809 0.602324306964874268 0.5
0.38359031081199646 0.60625988245010376 0.5
0.430943399667739868 0.736133038997650146 0.5
0.442781686782836914 0.744004130363464355 0.5
0.450673848390579224 0.744004130363464355 0.5
0.454619944095611572 0.747939705848693848 0.5
0.458566039800643921 0.744004130363464355 0.5
0.482242584228515625 0.740068614482879639 0.5
0.490134775638580322 0.732197463512420654 0.5
0.482242584228515625 0.704648613929748535 0.5
0.46251213550567627 0.688906431198120117 0.5
0.430943399667739868 0.692842006683349609 0.5
0.42699730396270752 0.696777522563934326 0.5
0.42699730396270752 0.700713098049163818 0.5
0.423051208257675171 0.704648613929748535 0.5
0.513811290264129639 0.252060294151306152 0.5
0.549326121807098389 0.255995869636535645 0.5
0.57300269603729248 0.252060294151306152 0.5
0.576948761940002441 0.232382550835609436 0.5
0.565110504627227783 0.212704792618751526 0.5
0.541433930397033691 0.204833701252937317 0.5
0.509865224361419678 0.228447005152702332 0.5
0.34807547926902771 0.527548849582672119 0.519999980926513672
0.352021574974060059 0.543291032314300537 0.519999980926513672
0.355967670679092407 0.547226607799530029 0.519999980926513672
0.375698119401931763 0.547226607799530029 0.519999980926513672
0.387536406517028809 0.535419940948486328 0.519999980926513672
0.387536406517028809 0.51967775821685791 0.519999980926513672
0.375698119401931763 0.507871091365814209 0.519999980926513672
0.359913766384124756 0.503935575485229492 0.519999980926513672
0.352021574974060059 0.507871091365814209 0.519999980926513672
0.34807547926902771 0.511806666851043701 0.519999980926513672
0.34807547926902771 0.515742182731628418 0.519999980926513672
0.344129383563995361 0.51967775821685791 0.519999980926513672
0.34807547926902771 0.433095633983612061 0.519999980926513672
0.359913766384124756 0.44096672534942627 0.519999980926513672
0.387536406517028809 0.437031179666519165 0.519999980926513672
0.391482502222061157 0.433095633983612061 0.519999980926513672
0.387536406517028809 0.41341787576675415 0.519999980926513672
0.363859862089157104 0.397675693035125732 0.519999980926513672
0.359913766384124756 0.397675693035125732 0.519999980926513672
0.34807547926902771 0.41341787576675415 0.519999980926513672
0.379644215106964111 0.622002065181732178 0.519999980926513672
0.395428568124771118 0.633808732032775879 0.519999980926513672
0.403320759534835815 0.633808732032775879 0.519999980926513672
0.415159046649932861 0.622002065181732178 0.519999980926513672
0.411212950944900513 0.602324306964874268 0.519999980926513672
0.387536406517028809 0.594453215599060059 0.519999980926513672
0.38359031081199646 0.598388791084289551 0.519999980926513672
0.379644215106964111 0.598388791084289551 0.519999980926513672
0.379644215106964111 0.602324306964874268 0.519999980926513672
0.375698119401931763 0.60625988245010376 0.519999980926513672
0.42699730396270752 0.724326372146606445 0.519999980926513672
0.442781686782836914 0.740068614482879639 0.519999980926513672
0.470404326915740967 0.736133038997650146 0.519999980926513672
0.482242584228515625 0.724326372146606445 0.519999980926513672
0.478296488523483276 0.71251976490020752 0.519999980926513672
0.46251213550567627 0.692842006683349609 0.519999980926513672
0.454619944095611572 0.688906431198120117 0.519999980926513672
0.423051208257675171 0.692842006683349609 0.519999980926513672
0.494080871343612671 0.255995869636535645 0.519999980926513672
0.53748786449432373 0.263866961002349854 0.519999980926513672
0.553272247314453125 0.263866961002349854 0.519999980926513672
0.565110504627227783 0.244189202785491943 0.519999980926513672
0.565110504627227783 0.232382550835609436 0.519999980926513672
0.549326121807098389 0.220575898885726929 0.519999980926513672
0.521703481674194336 0.220575898885726929 0.519999980926513672
0.49802696704864502 0.220575898885726929 0.519999980926513672
0.49802696704864502 0.232382550835609436 0.519999980926513672
0.494080871343612671 0.236318096518516541 0.519999980926513672
0.34807547926902771 0.535419940948486328 0.540000021457672119
0.355967670679092407 0.543291032314300537 0.540000021457672119
0.379644215106964111 0.53935551643371582 0.540000021457672119
0.387536406517028809 0.527548849582672119 0.540000021457672119
0.387536406517028809 0.515742182731628418 0.540000021457672119
0.375698119401931763 0.503935575485229492 0.540000021457672119
0.359913766384124756 0.5 0.540000021457672119
0.352021574974060059 0.503935575485229492 0.540000021457672119
0.344129383563995361 0.511806666851043701 0.540000021457672119
0.34807547926902771 0.433095633983612061 0.540000021457672119
0.375698119401931763 0.44096672534942627 0.540000021457672119
0.379644215106964111 0.437031179666519165 0.540000021457672119
0.387536406517028809 0.437031179666519165 0.540000021457672119
0.391482502222061157 0.433095633983612061 0.540000021457672119
0.391482502222061157 0.417353421449661255 0.540000021457672119
0.363859862089157104 0.397675693035125732 0.540000021457672119
0.352021574974060059 0.401611238718032837 0.540000021457672119
0.352021574974060059 0.405546784400939941 0.540000021457672119
0.34807547926902771 0.409482330083847046 0.540000021457672119
0.371752023696899414 0.610195398330688477 0.540000021457672119
0.387536406517028809 0.62593764066696167 0.540000021457672119
0.391482502222061157 0.62593764066696167 0.540000021457672119
0.407266855239868164 0.610195398330688477 0.540000021457672119
0.407266855239868164 0.598388791084289551 0.540000021457672119
0.403320759534835815 0.594453215599060059 0.540000021457672119
0.379644215106964111 0.590517640113830566 0.540000021457672119
0.371752023696899414 0.598388791084289551 0.540000021457672119
0.423051208257675171 0.716455280780792236 0.540000021457672119
0.434889495372772217 0.728261947631835938 0.540000021457672119
0.442781686782836914 0.728261947631835938 0.540000021457672119
0.446727782487869263 0.732197463512420654 0.540000021457672119
0.46251213550567627 0.720390856266021729 0.540000021457672119
0.458566039800643921 0.696777522563934326 0.540000021457672119
0.450673848390579224 0.688906431198120117 0.540000021457672119
0.41910514235496521 0.684970855712890625 0.540000021457672119
0.494080871343612671 0.271738052368164062 0.540000021457672119
0.505919158458709717 0.279609173536300659 0.540000021457672119
0.529595673084259033 0.275673598051071167 0.540000021457672119
0.53354179859161377 0.279609173536300659 0.540000021457672119
0.557218313217163086 0.275673598051071167 0.540000021457672119
0.569056570529937744 0.255995869636535645 0.540000021457672119
0.561164438724517822 0.232382550835609436 0.540000021457672119
0.53748786449432373 0.216640353202819824 0.540000021457672119
0.49802696704864502 0.220575898885726929 0.540000021457672119
0.486188679933547974 0.236318096518516541 0.540000021457672119
0.34807547926902771 0.535419940948486328 0.560000002384185791
0.367805957794189453 0.53935551643371582 0.560000002384185791
0.375698119401931763 0.535419940948486328 0.560000002384185791
0.387536406517028809 0.523613333702087402 0.560000002384185791
0.387536406517028809 0.511806666851043701 0.560000002384185791
0.367805957794189453 0.496064454317092896 0.560000002384185791
0.34807547926902771 0.5 0.560000002384185791
0.3401833176612854 0.515742182731628418 0.560000002384185791
0.34807547926902771 0.429160088300704956 0.560000002384185791
0.367805957794189453 0.44096672534942627 0.560000002384185791
0.387536406517028809 0.437031179666519165 0.560000002384185791
0.391482502222061157 0.433095633983612061 0.560000002384185791
0.391482502222061157 0.417353421449661255 0.560000002384185791
0.367805957794189453 0.397675693035125732 0.560000002384185791
0.355967670679092407 0.397675693035125732 0.560000002384185791
0.34807547926902771 0.405546784400939941 0.560000002384185791
0.371752023696899414 0.614130973815917969 0.560000002384185791
0.375698119401931763 0.618066549301147461 0.560000002384185791
0.395428568124771118 0.614130973815917969 0.560000002384185791
0.399374663829803467 0.610195398330688477 0.560000002384185791
0.403320759534835815 0.594453215599060059 0.560000002384185791
0.391482502222061157 0.58658212423324585 0.560000002384185791
0.371752023696899414 0.58658212423324585 0.560000002384185791
0.367805957794189453 0.590517640113830566 0.560000002384185791
0.415159046649932861 0.700713098049163818 0.560000002384185791
0.434889495372772217 0.720390856266021729 0.560000002384185791
0.446727782487869263 0.720390856266021729 0.560000002384185791
0.450673848390579224 0.716455280780792236 0.560000002384185791
0.450673848390579224 0.692842006683349609 0.560000002384185791
0.442781686782836914 0.684970855712890625 0.560000002384185791
0.41910514235496521 0.677099764347076416 0.560000002384185791
0.415159046649932861 0.681035339832305908 0.560000002384185791
0.490134775638580322 0.275673598051071167 0.560000002384185791
0.50197303295135498 0.283544719219207764 0.560000002384185791
0.529595673084259033 0.283544719219207764 0.560000002384185791
0.549326121807098389 0.279609173536300659 0.560000002384185791
0.561164438724517822 0.267802506685256958 0.560000002384185791
0.565110504627227783 0.244189202785491943 0.560000002384185791
0.561164438724517822 0.240253657102584839 0.560000002384185791
0.561164438724517822 0.232382550835609436 0.560000002384185791
0.549326121807098389 0.220575898885726929 0.560000002384185791
0.49802696704864502 0.228447005152702332 0.560000002384185791
0.482242584228515625 0.252060294151306152 0.560000002384185791
0.3401833176612854 0.523613333702087402 0.579999983310699463
0.352021574974060059 0.535419940948486328 0.579999983310699463
0.379644215106964111 0.531484425067901611 0.579999983310699463
0.379644215106964111 0.527548849582672119 0.579999983310699463
0.387536406517028809 0.51967775821685791 0.579999983310699463
0.38359031081199646 0.5 0.579999983310699463
0.379644215106964111 0.496064454317092896 0.579999983310699463
0.352021574974060059 0.492128908634185791 0.579999983310699463
0.3401833176612854 0.503935575485229492 0.579999983310699463
0.3401833176612854 0.511806666851043701 0.579999983310699463
0.336237221956253052 0.515742182731628418 0.579999983310699463
0.34807547926902771 0.417353421449661255 0.579999983310699463
0.34807547926902771 0.429160088300704956 0.579999983310699463
0.363859862089157104 0.44096672534942627 0.579999983310699463
0.38359031081199646 0.44096672534942627 0.579999983310699463
0.391482502222061157 0.433095633983612061 0.579999983310699463
0.391482502222061157 0.409482330083847046 0.579999983310699463
0.371752023696899414 0.397675693035125732 0.579999983310699463
0.352021574974060059 0.397675693035125732 0.579999983310699463
0.34807547926902771 0.401611238718032837 0.579999983310699463
0.34807547926902771 0.405546784400939941 0.579999983310699463
0.344129383563995361 0.409482330083847046 0.579999983310699463
0.367805957794189453 0.60625988245010376 0.579999983310699463
0.387536406517028809 0.610195398330688477 0.579999983310699463
0.403320759534835815 0.594453215599060059 0.579999983310699463
0.38359031081199646 0.578711032867431641 0.579999983310699463
0.371752023696899414 0.578711032867431641 0.579999983310699463
0.363859862089157104 0.58658212423324585 0.579999983310699463
0.411212950944900513 0.684970855712890625 0.579999983310699463
0.411212950944900513 0.692842006683349609 0.579999983310699463
0.434889495372772217 0.71251976490020752 0.579999983310699463
0.438835591077804565 0.71251976490020752 0.579999983310699463
0.446727782487869263 0.700713098049163818 0.579999983310699463
0.442781686782836914 0.684970855712890625 0.579999983310699463
0.42699730396270752 0.673164248466491699 0.579999983310699463
0.411212950944900513 0.673164248466491699 0.579999983310699463
0.407266855239868164 0.677099764347076416 0.579999983310699463
0.482242584228515625 0.271738052368164062 0.579999983310699463
0.50197303295135498 0.287480264902114868 0.579999983310699463
0.53748786449432373 0.283544719219207764 0.579999983310699463
0.557218313217163086 0.263866961002349854 0.579999983310699463
0.557218313217163086 0.244189202785491943 0.579999983310699463
0.549326121807098389 0.236318096518516541 0.579999983310699463
0.509865224361419678 0.232382550835609436 0.579999983310699463
0.505919158458709717 0.236318096518516541 0.579999983310699463
0.49802696704864502 0.236318096518516541 0.579999983310699463
0.482242584228515625 0.255995869636535645 0.579999983310699463
0.336237221956253052 0.51967775821685791 0.60000002384185791
0.34807547926902771 0.535419940948486328 0.60000002384185791
0.375698119401931763 0.531484425067901611 0.60000002384185791
0.387536406517028809 0.51967775821685791 0.60000002384185791
0.38359031081199646 0.492128908634185791 0.60000002384185791
0.352021574974060059 0.48032224178314209 0.60000002384185791
0.336237221956253052 0.5 0.60000002384185791
0.34807547926902771 0.429160088300704956 0.60000002384185791
0.367805957794189453 0.444902300834655762 0.60000002384185791
0.395428568124771118 0.437031179666519165 0.60000002384185791
0.399374663829803467 0.421288996934890747 0.60000002384185791
0.395428568124771118 0.417353421449661255 0.60000002384185791
0.395428568124771118 0.409482330083847046 0.60000002384185791
0.375698119401931763 0.39374011754989624 0.60000002384185791
0.355967670679092407 0.39374011754989624 0.60000002384185791
0.344129383563995361 0.405546784400939941 0.60000002384185791
0.363859862089157104 0.598388791084289551 0.60000002384185791
0.38359031081199646 0.602324306964874268 0.60000002384185791
0.391482502222061157 0.598388791084289551 0.60000002384185791
0.399374663829803467 0.590517640113830566 0.60000002384185791
0.399374663829803467 0.58658212423324585 0.60000002384185791
0.38359031081199646 0.570839941501617432 0.60000002384185791
0.367805957794189453 0.570839941501617432 0.60000002384185791
0.359913766384124756 0.578711032867431641 0.60000002384185791
0.407266855239868164 0.681035339832305908 0.60000002384185791
0.42699730396270752 0.700713098049163818 0.60000002384185791
0.438835591077804565 0.700713098049163818 0.60000002384185791
0.442781686782836914 0.688906431198120117 0.60000002384185791
0.438835591077804565 0.681035339832305908 0.60000002384185791
0.423051208257675171 0.661357581615447998 0.60000002384185791
0.407266855239868164 0.661357581615447998 0.60000002384185791
0.486188679933547974 0.283544719219207764 0.60000002384185791
0.49802696704864502 0.295351356267929077 0.60000002384185791
0.529595673084259033 0.291415810585021973 0.60000002384185791
0.549326121807098389 0.267802506685256958 0.60000002384185791
0.549326121807098389 0.259931415319442749 0.60000002384185791
0.53354179859161377 0.240253657102584839 0.60000002384185791
0.494080871343612671 0.248124748468399048 0.60000002384185791
0.482242584228515625 0.259931415319442749 0.60000002384185791
0.332291126251220703 0.511806666851043701 0.620000004768371582
0.332291126251220703 0.51967775821685791 0.620000004768371582
0.3401833176612854 0.527548849582672119 0.620000004768371582
0.3401833176612854 0.531484425067901611 0.620000004768371582
0.359913766384124756 0.535419940948486328 0.620000004768371582
0.363859862089157104 0.531484425067901611 0.620000004768371582
0.38359031081199646 0.527548849582672119 0.620000004768371582
0.387536406517028809 0.523613333702087402 0.620000004768371582
0.391482502222061157 0.492128908634185791 0.620000004768371582
0.371752023696899414 0.476386696100234985 0.620000004768371582
0.344129383563995361 0.472451150417327881 0.620000004768371582
0.332291126251220703 0.488193333148956299 0.620000004768371582
0.344129383563995361 0.425224542617797852 0.620000004768371582
0.344129383563995361 0.429160088300704956 0.620000004768371582
0.352021574974060059 0.437031179666519165 0.620000004768371582
0.352021574974060059 0.44096672534942627 0.620000004768371582
0.387536406517028809 0.448837846517562866 0.620000004768371582
0.395428568124771118 0.444902300834655762 0.620000004768371582
0.407266855239868164 0.425224542617797852 0.620000004768371582
0.403320759534835815 0.421288996934890747 0.620000004768371582
0.399374663829803467 0.405546784400939941 0.620000004768371582
0.38359031081199646 0.389804571866989136 0.620000004768371582
0.363859862089157104 0.385869026184082031 0.620000004768371582
0.355967670679092407 0.389804571866989136 0.620000004768371582
0.344129383563995361 0.401611238718032837 0.620000004768371582
0.359913766384124756 0.590517640113830566 0.620000004768371582
0.371752023696899414 0.598388791084289551 0.620000004768371582
0.391482502222061157 0.594453215599060059 0.620000004768371582
0.399374663829803467 0.58658212423324585 0.620000004768371582
0.391482502222061157 0.566904366016387939 0.620000004768371582
