ply
format ascii 1.0
element vertex 777
property float x
property float y
property float z
end_header
0.549326121807098389 0.159999996423721313 0.692842006683349609
0.545380055904388428 0.159999996423721313 0.696777522563934326
0.430943399667739868 0.180000007152557373 0.55903327465057373
0.434889495372772217 0.180000007152557373 0.570839941501617432
0.450673848390579224 0.180000007152557373 0.58658212423324585
0.454619944095611572 0.180000007152557373 0.58658212423324585
0.454619944095611572 0.180000007152557373 0.55903327465057373
0.454619944095611572 0.180000007152557373 0.53935551643371582
0.458566039800643921 0.180000007152557373 0.535419940948486328
0.450673848390579224 0.180000007152557373 0.523613333702087402
0.438835591077804565 0.180000007152557373 0.527548849582672119
0.430943399667739868 0.180000007152557373 0.535419940948486328
0.434889495372772217 0.180000007152557373 0.425224542617797852
0.438835591077804565 0.180000007152557373 0.437031179666519165
0.446727782487869263 0.180000007152557373 0.444902300834655762
0.46251213550567627 0.180000007152557373 0.44096672534942627
0.466458231210708618 0.180000007152557373 0.437031179666519165
0.46251213550567627 0.180000007152557373 0.401611238718032837
0.450673848390579224 0.180000007152557373 0.39374011754989624
0.442781686782836914 0.180000007152557373 0.39374011754989624
0.434889495372772217 0.180000007152557373 0.401611238718032837
0.521703481674194336 0.180000007152557373 0.704648613929748535
0.53748786449432373 0.180000007152557373 0.720390856266021729
0.549326121807098389 0.180000007152557373 0.716455280780792236
0.557218313217163086 0.180000007152557373 0.708584189414978027
0.553272247314453125 0.180000007152557373 0.692842006683349609
0.53748786449432373 0.180000007152557373 0.677099764347076416
0.525649607181549072 0.180000007152557373 0.681035339832305908
0.517757415771484375 0.180000007152557373 0.688906431198120117
0.42699730396270752 0.200000002980232239 0.566904366016387939
0.442781686782836914 0.200000002980232239 0.582646548748016357
0.446727782487869263 0.200000002980232239 0.582646548748016357
0.450673848390579224 0.200000002980232239 0.555097699165344238
0.446727782487869263 0.200000002980232239 0.551162183284759521
0.446727782487869263 0.200000002980232239 0.527548849582672119
0.442781686782836914 0.200000002980232239 0.523613333702087402
0.42699730396270752 0.200000002980232239 0.535419940948486328
0.42699730396270752 0.200000002980232239 0.547226607799530029
0.423051208257675171 0.200000002980232239 0.551162183284759521
0.430943399667739868 0.200000002980232239 0.437031179666519165
0.438835591077804565 0.200000002980232239 0.444902300834655762
0.450673848390579224 0.200000002980232239 0.44096672534942627
0.446727782487869263 0.200000002980232239 0.401611238718032837
0.442781686782836914 0.200000002980232239 0.397675693035125732
0.434889495372772217 0.200000002980232239 0.397675693035125732
0.42699730396270752 0.200000002980232239 0.405546784400939941
0.490134775638580322 0.200000002980232239 0.696777522563934326
0.521703481674194336 0.200000002980232239 0.720390856266021729
0.53354179859161377 0.200000002980232239 0.720390856266021729
0.545380055904388428 0.200000002980232239 0.708584189414978027
0.53748786449432373 0.200000002980232239 0.684970855712890625
0.525649607181549072 0.200000002980232239 0.673164248466491699
0.517757415771484375 0.200000002980232239 0.673164248466491699
0.509865224361419678 0.200000002980232239 0.681035339832305908
0.505919158458709717 0.200000002980232239 0.681035339832305908
0.49802696704864502 0.200000002980232239 0.673164248466491699
0.494080871343612671 0.200000002980232239 0.673164248466491699
0.486188679933547974 0.200000002980232239 0.681035339832305908
0.42699730396270752 0.219999998807907104 0.44096672534942627
0.430943399667739868 0.219999998807907104 0.444902300834655762
0.442781686782836914 0.219999998807907104 0.444902300834655762
0.442781686782836914 0.219999998807907104 0.417353421449661255
0.442781686782836914 0.219999998807907104 0.401611238718032837
0.438835591077804565 0.219999998807907104 0.397675693035125732
0.423051208257675171 0.219999998807907104 0.401611238718032837
0.423051208257675171 0.219999998807907104 0.405546784400939941
0.41910514235496521 0.219999998807907104 0.409482330083847046
0.41910514235496521 0.219999998807907104 0.562968790531158447
0.41910514235496521 0.219999998807907104 0.566904366016387939
0.438835591077804565 0.219999998807907104 0.582646548748016357
0.442781686782836914 0.219999998807907104 0.578711032867431641
0.442781686782836914 0.219999998807907104 0.551162183284759521
0.442781686782836914 0.219999998807907104 0.527548849582672119
0.438835591077804565 0.219999998807907104 0.523613333702087402
0.434889495372772217 0.219999998807907104 0.527548849582672119
0.42699730396270752 0.219999998807907104 0.527548849582672119
0.423051208257675171 0.219999998807907104 0.531484425067901611
0.423051208257675171 0.219999998807907104 0.535419940948486328
0.41910514235496521 0.219999998807907104 0.53935551643371582
0.486188679933547974 0.219999998807907104 0.708584189414978027
0.513811290264129639 0.219999998807907104 0.71251976490020752
0.517757415771484375 0.219999998807907104 0.708584189414978027
0.517757415771484375 0.219999998807907104 0.692842006683349609
0.49802696704864502 0.219999998807907104 0.669228672981262207
0.490134775638580322 0.219999998807907104 0.66529315710067749
0.486188679933547974 0.219999998807907104 0.66529315710067749
0.482242584228515625 0.219999998807907104 0.669228672981262207
0.482242584228515625 0.219999998807907104 0.673164248466491699
0.478296488523483276 0.219999998807907104 0.677099764347076416
0.667708873748779297 0.219999998807907104 0.846328437328338623
0.671654939651489258 0.219999998807907104 0.842392921447753906
0.663762807846069336 0.219999998807907104 0.830586254596710205
0.6598166823387146 0.219999998807907104 0.830586254596710205
0.6598166823387146 0.219999998807907104 0.838457345962524414
0.655870616436004639 0.219999998807907104 0.842392921447753906
0.415159046649932861 0.23999999463558197 0.437031179666519165
0.423051208257675171 0.23999999463558197 0.444902300834655762
0.438835591077804565 0.23999999463558197 0.444902300834655762
0.442781686782836914 0.23999999463558197 0.405546784400939941
0.438835591077804565 0.23999999463558197 0.401611238718032837
0.438835591077804565 0.23999999463558197 0.397675693035125732
0.41910514235496521 0.23999999463558197 0.401611238718032837
0.415159046649932861 0.23999999463558197 0.417353421449661255
0.411212950944900513 0.23999999463558197 0.421288996934890747
0.411212950944900513 0.23999999463558197 0.562968790531158447
0.42699730396270752 0.23999999463558197 0.578711032867431641
0.434889495372772217 0.23999999463558197 0.578711032867431641
0.438835591077804565 0.23999999463558197 0.574775457382202148
0.438835591077804565 0.23999999463558197 0.547226607799530029
0.438835591077804565 0.23999999463558197 0.531484425067901611
0.442781686782836914 0.23999999463558197 0.527548849582672119
0.438835591077804565 0.23999999463558197 0.523613333702087402
0.42699730396270752 0.23999999463558197 0.523613333702087402
0.411212950944900513 0.23999999463558197 0.543291032314300537
0.478296488523483276 0.23999999463558197 0.704648613929748535
0.490134775638580322 0.23999999463558197 0.71251976490020752
0.494080871343612671 0.23999999463558197 0.708584189414978027
0.49802696704864502 0.23999999463558197 0.708584189414978027
0.494080871343612671 0.23999999463558197 0.669228672981262207
0.490134775638580322 0.23999999463558197 0.66529315710067749
0.474350392818450928 0.23999999463558197 0.66529315710067749
0.474350392818450928 0.23999999463558197 0.669228672981262207
0.470404326915740967 0.23999999463558197 0.673164248466491699
0.628247976303100586 0.23999999463558197 0.838457345962524414
0.640086233615875244 0.23999999463558197 0.846328437328338623
0.651924490928649902 0.23999999463558197 0.846328437328338623
0.655870616436004639 0.23999999463558197 0.842392921447753906
0.64403235912322998 0.23999999463558197 0.830586254596710205
0.62430185079574585 0.23999999463558197 0.830586254596710205
0.407266855239868164 0.259999990463256836 0.437031179666519165
0.423051208257675171 0.259999990463256836 0.448837846517562866
0.434889495372772217 0.259999990463256836 0.448837846517562866
0.438835591077804565 0.259999990463256836 0.41341787576675415
0.438835591077804565 0.259999990463256836 0.401611238718032837
0.434889495372772217 0.259999990463256836 0.397675693035125732
0.411212950944900513 0.259999990463256836 0.401611238718032837
0.403320759534835815 0.259999990463256836 0.425224542617797852
0.403320759534835815 0.259999990463256836 0.55903327465057373
0.423051208257675171 0.259999990463256836 0.578711032867431641
0.430943399667739868 0.259999990463256836 0.578711032867431641
0.438835591077804565 0.259999990463256836 0.570839941501617432
0.434889495372772217 0.259999990463256836 0.543291032314300537
0.438835591077804565 0.259999990463256836 0.53935551643371582
0.438835591077804565 0.259999990463256836 0.527548849582672119
0.434889495372772217 0.259999990463256836 0.523613333702087402
0.415159046649932861 0.259999990463256836 0.527548849582672119
0.403320759534835815 0.259999990463256836 0.547226607799530029
0.466458231210708618 0.259999990463256836 0.692842006683349609
0.478296488523483276 0.259999990463256836 0.704648613929748535
0.486188679933547974 0.259999990463256836 0.704648613929748535
0.490134775638580322 0.259999990463256836 0.688906431198120117
0.486188679933547974 0.259999990463256836 0.684970855712890625
0.482242584228515625 0.259999990463256836 0.661357581615447998
0.478296488523483276 0.259999990463256836 0.657422006130218506
0.474350392818450928 0.259999990463256836 0.661357581615447998
0.466458231210708618 0.259999990463256836 0.661357581615447998
0.466458231210708618 0.259999990463256836 0.66529315710067749
0.46251213550567627 0.259999990463256836 0.669228672981262207
0.580894887447357178 0.259999990463256836 0.157607093453407288
0.584840953350067139 0.259999990463256836 0.153671532869338989
0.580894887447357178 0.259999990463256836 0.149735987186431885
0.576948761940002441 0.259999990463256836 0.149735987186431885
0.57300269603729248 0.259999990463256836 0.153671532869338989
0.604571402072906494 0.259999990463256836 0.834521830081939697
0.620355784893035889 0.259999990463256836 0.850264012813568115
0.640086233615875244 0.259999990463256836 0.850264012813568115
0.640086233615875244 0.259999990463256836 0.838457345962524414
0.62430185079574585 0.259999990463256836 0.826650679111480713
0.616409718990325928 0.259999990463256836 0.826650679111480713
0.60851752758026123 0.259999990463256836 0.818779587745666504
0.604571402072906494 0.259999990463256836 0.822715163230895996
0.399374663829803467 0.280000001192092896 0.437031179666519165
0.399374663829803467 0.280000001192092896 0.44096672534942627
0.415159046649932861 0.280000001192092896 0.452773392200469971
0.430943399667739868 0.280000001192092896 0.452773392200469971
0.438835591077804565 0.280000001192092896 0.444902300834655762
0.442781686782836914 0.280000001192092896 0.409482330083847046
0.434889495372772217 0.280000001192092896 0.397675693035125732
0.434889495372772217 0.280000001192092896 0.39374011754989624
0.411212950944900513 0.280000001192092896 0.39374011754989624
0.403320759534835815 0.280000001192092896 0.401611238718032837
0.403320759534835815 0.280000001192092896 0.409482330083847046
0.399374663829803467 0.280000001192092896 0.41341787576675415
0.399374663829803467 0.280000001192092896 0.562968790531158447
0.415159046649932861 0.280000001192092896 0.578711032867431641
0.430943399667739868 0.280000001192092896 0.578711032867431641
0.438835591077804565 0.280000001192092896 0.566904366016387939
0.438835591077804565 0.280000001192092896 0.53935551643371582
0.438835591077804565 0.280000001192092896 0.523613333702087402
0.41910514235496521 0.280000001192092896 0.51967775821685791
0.411212950944900513 0.280000001192092896 0.523613333702087402
0.399374663829803467 0.280000001192092896 0.53935551643371582
0.458566039800643921 0.280000001192092896 0.673164248466491699
0.458566039800643921 0.280000001192092896 0.684970855712890625
0.474350392818450928 0.280000001192092896 0.700713098049163818
0.478296488523483276 0.280000001192092896 0.700713098049163818
0.482242584228515625 0.280000001192092896 0.696777522563934326
0.474350392818450928 0.280000001192092896 0.653486490249633789
0.466458231210708618 0.280000001192092896 0.653486490249633789
0.454619944095611572 0.280000001192092896 0.66529315710067749
0.565110504627227783 0.280000001192092896 0.173349291086196899
0.588787078857421875 0.280000001192092896 0.169413745403289795
0.592733144760131836 0.280000001192092896 0.165478184819221497
0.592733144760131836 0.280000001192092896 0.157607093453407288
0.576948761940002441 0.280000001192092896 0.153671532869338989
0.565110504627227783 0.280000001192092896 0.165478184819221497
0.592733144760131836 0.280000001192092896 0.838457345962524414
0.604571402072906494 0.280000001192092896 0.846328437328338623
0.612463593482971191 0.280000001192092896 0.846328437328338623
0.616409718990325928 0.280000001192092896 0.850264012813568115
0.620355784893035889 0.280000001192092896 0.846328437328338623
0.62430185079574585 0.280000001192092896 0.846328437328338623
0.62430185079574585 0.280000001192092896 0.838457345962524414
0.592733144760131836 0.280000001192092896 0.814844071865081787
0.588787078857421875 0.280000001192092896 0.818779587745666504
0.395428568124771118 0.300000011920928955 0.566904366016387939
0.411212950944900513 0.300000011920928955 0.582646548748016357
0.438835591077804565 0.300000011920928955 0.578711032867431641
0.442781686782836914 0.300000011920928955 0.562968790531158447
0.438835591077804565 0.300000011920928955 0.55903327465057373
0.442781686782836914 0.300000011920928955 0.523613333702087402
0.42699730396270752 0.300000011920928955 0.511806666851043701
0.411212950944900513 0.300000011920928955 0.515742182731628418
0.395428568124771118 0.300000011920928955 0.535419940948486328
0.395428568124771118 0.300000011920928955 0.543291032314300537
0.391482502222061157 0.300000011920928955 0.547226607799530029
0.395428568124771118 0.300000011920928955 0.429160088300704956
0.399374663829803467 0.300000011920928955 0.448837846517562866
0.415159046649932861 0.300000011920928955 0.46064448356628418
0.430943399667739868 0.300000011920928955 0.46064448356628418
0.442781686782836914 0.300000011920928955 0.448837846517562866
0.446727782487869263 0.300000011920928955 0.397675693035125732
0.438835591077804565 0.300000011920928955 0.389804571866989136
0.411212950944900513 0.300000011920928955 0.385869026184082031
0.403320759534835815 0.300000011920928955 0.389804571866989136
0.399374663829803467 0.300000011920928955 0.39374011754989624
0.399374663829803467 0.300000011920928955 0.401611238718032837
0.395428568124771118 0.300000011920928955 0.405546784400939941
0.454619944095611572 0.300000011920928955 0.684970855712890625
0.470404326915740967 0.300000011920928955 0.696777522563934326
0.474350392818450928 0.300000011920928955 0.696777522563934326
0.478296488523483276 0.300000011920928955 0.692842006683349609
0.470404326915740967 0.300000011920928955 0.649550914764404297
0.466458231210708618 0.300000011920928955 0.64561539888381958
0.46251213550567627 0.300000011920928955 0.64561539888381958
0.450673848390579224 0.300000011920928955 0.657422006130218506
0.561164438724517822 0.300000011920928955 0.185155943036079407
0.565110504627227783 0.300000011920928955 0.189091488718986511
0.588787078857421875 0.300000011920928955 0.181220397353172302
0.588787078857421875 0.300000011920928955 0.169413745403289795
0.584840953350067139 0.300000011920928955 0.165478184819221497
0.57300269603729248 0.300000011920928955 0.165478184819221497
0.561164438724517822 0.300000011920928955 0.177284836769104004
0.565110504627227783 0.300000011920928955 0.826650679111480713
0.584840953350067139 0.300000011920928955 0.842392921447753906
0.600625336170196533 0.300000011920928955 0.842392921447753906
0.600625336170196533 0.300000011920928955 0.830586254596710205
0.580894887447357178 0.300000011920928955 0.810908496379852295
0.565110504627227783 0.300000011920928955 0.810908496379852295
0.561164438724517822 0.300000011920928955 0.814844071865081787
0.391482502222061157 0.319999992847442627 0.562968790531158447
0.395428568124771118 0.319999992847442627 0.574775457382202148
0.403320759534835815 0.319999992847442627 0.582646548748016357
0.403320759534835815 0.319999992847442627 0.58658212423324585
0.434889495372772217 0.319999992847442627 0.590517640113830566
0.442781686782836914 0.319999992847442627 0.582646548748016357
0.446727782487869263 0.319999992847442627 0.551162183284759521
0.442781686782836914 0.319999992847442627 0.547226607799530029
0.446727782487869263 0.319999992847442627 0.523613333702087402
0.442781686782836914 0.319999992847442627 0.515742182731628418
0.430943399667739868 0.319999992847442627 0.507871091365814209
0.407266855239868164 0.319999992847442627 0.511806666851043701
0.395428568124771118 0.319999992847442627 0.527548849582672119
0.395428568124771118 0.319999992847442627 0.535419940948486328
0.391482502222061157 0.319999992847442627 0.53935551643371582
0.395428568124771118 0.319999992847442627 0.425224542617797852
0.399374663829803467 0.319999992847442627 0.444902300834655762
0.415159046649932861 0.319999992847442627 0.46064448356628418
0.438835591077804565 0.319999992847442627 0.452773392200469971
0.450673848390579224 0.319999992847442627 0.405546784400939941
0.430943399667739868 0.319999992847442627 0.389804571866989136
0.415159046649932861 0.319999992847442627 0.385869026184082031
0.411212950944900513 0.319999992847442627 0.389804571866989136
0.403320759534835815 0.319999992847442627 0.389804571866989136
0.399374663829803467 0.319999992847442627 0.39374011754989624
0.399374663829803467 0.319999992847442627 0.397675693035125732
0.395428568124771118 0.319999992847442627 0.401611238718032837
0.442781686782836914 0.319999992847442627 0.673164248466491699
0.458566039800643921 0.319999992847442627 0.688906431198120117
0.470404326915740967 0.319999992847442627 0.688906431198120117
0.474350392818450928 0.319999992847442627 0.673164248466491699
0.470404326915740967 0.319999992847442627 0.669228672981262207
0.470404326915740967 0.319999992847442627 0.641679823398590088
0.458566039800643921 0.319999992847442627 0.641679823398590088
0.442781686782836914 0.319999992847442627 0.657422006130218506
0.549326121807098389 0.319999992847442627 0.818779587745666504
0.565110504627227783 0.319999992847442627 0.838457345962524414
0.588787078857421875 0.319999992847442627 0.838457345962524414
0.592733144760131836 0.319999992847442627 0.834521830081939697
0.588787078857421875 0.319999992847442627 0.830586254596710205
0.588787078857421875 0.319999992847442627 0.822715163230895996
0.57300269603729248 0.319999992847442627 0.803037405014038086
0.549326121807098389 0.319999992847442627 0.806972980499267578
0.553272247314453125 0.319999992847442627 0.200898140668869019
0.588787078857421875 0.319999992847442627 0.196962594985961914
0.592733144760131836 0.319999992847442627 0.181220397353172302
0.580894887447357178 0.319999992847442627 0.169413745403289795
0.569056570529937744 0.319999992847442627 0.169413745403289795
0.553272247314453125 0.319999992847442627 0.185155943036079407
0.375698119401931763 0.340000003576278687 0.448837846517562866
0.38359031081199646 0.340000003576278687 0.456708937883377075
0.387536406517028809 0.340000003576278687 0.452773392200469971
0.415159046649932861 0.340000003576278687 0.452773392200469971
0.41910514235496521 0.340000003576278687 0.452773392200469971
0.430943399667739868 0.340000003576278687 0.44096672534942627
0.434889495372772217 0.340000003576278687 0.417353421449661255
0.430943399667739868 0.340000003576278687 0.41341787576675415
0.430943399667739868 0.340000003576278687 0.405546784400939941
0.41910514235496521 0.340000003576278687 0.39374011754989624
0.399374663829803467 0.340000003576278687 0.39374011754989624
0.371752023696899414 0.340000003576278687 0.429160088300704956
0.387536406517028809 0.340000003576278687 0.562968790531158447
0.407266855239868164 0.340000003576278687 0.578711032867431641
0.434889495372772217 0.340000003576278687 0.582646548748016357
0.442781686782836914 0.340000003576278687 0.574775457382202148
0.442781686782836914 0.340000003576278687 0.547226607799530029
0.438835591077804565 0.340000003576278687 0.51967775821685791
0.434889495372772217 0.340000003576278687 0.515742182731628418
0.403320759534835815 0.340000003576278687 0.51967775821685791
0.395428568124771118 0.340000003576278687 0.531484425067901611
0.395428568124771118 0.340000003576278687 0.53935551643371582
0.387536406517028809 0.340000003576278687 0.547226607799530029
0.434889495372772217 0.340000003576278687 0.669228672981262207
0.454619944095611572 0.340000003576278687 0.684970855712890625
0.466458231210708618 0.340000003576278687 0.684970855712890625
0.474350392818450928 0.340000003576278687 0.677099764347076416
0.470404326915740967 0.340000003576278687 0.629873156547546387
0.450673848390579224 0.340000003576278687 0.633808732032775879
0.434889495372772217 0.340000003576278687 0.657422006130218506
0.529595673084259033 0.340000003576278687 0.810908496379852295
0.553272247314453125 0.340000003576278687 0.826650679111480713
0.565110504627227783 0.340000003576278687 0.826650679111480713
0.569056570529937744 0.340000003576278687 0.822715163230895996
0.569056570529937744 0.340000003576278687 0.814844071865081787
0.53748786449432373 0.340000003576278687 0.791230738162994385
0.529595673084259033 0.340000003576278687 0.791230738162994385
0.525649607181549072 0.340000003576278687 0.795166313648223877
0.545380055904388428 0.340000003576278687 0.204833701252937317
0.580894887447357178 0.340000003576278687 0.208769246935844421
0.592733144760131836 0.340000003576278687 0.200898140668869019
0.596679210662841797 0.340000003576278687 0.200898140668869019
0.596679210662841797 0.340000003576278687 0.189091488718986511
0.576948761940002441 0.340000003576278687 0.173349291086196899
0.553272247314453125 0.340000003576278687 0.177284836769104004
0.545380055904388428 0.340000003576278687 0.185155943036079407
0.371752023696899414 0.360000014305114746 0.456708937883377075
0.375698119401931763 0.360000014305114746 0.46064448356628418
0.403320759534835815 0.360000014305114746 0.452773392200469971
0.407266855239868164 0.360000014305114746 0.456708937883377075
0.42699730396270752 0.360000014305114746 0.456708937883377075
0.434889495372772217 0.360000014305114746 0.444902300834655762
0.42699730396270752 0.360000014305114746 0.39374011754989624
0.415159046649932861 0.360000014305114746 0.381933480501174927
0.411212950944900513 0.360000014305114746 0.385869026184082031
0.379644215106964111 0.360000014305114746 0.397675693035125732
0.363859862089157104 0.360000014305114746 0.417353421449661255
0.375698119401931763 0.360000014305114746 0.578711032867431641
0.387536406517028809 0.360000014305114746 0.58658212423324585
0.42699730396270752 0.360000014305114746 0.578711032867431641
0.430943399667739868 0.360000014305114746 0.574775457382202148
0.430943399667739868 0.360000014305114746 0.547226607799530029
0.42699730396270752 0.360000014305114746 0.531484425067901611
0.411212950944900513 0.360000014305114746 0.515742182731628418
0.403320759534835815 0.360000014305114746 0.515742182731628418
0.375698119401931763 0.360000014305114746 0.53935551643371582
0.371752023696899414 0.360000014305114746 0.547226607799530029
0.42699730396270752 0.360000014305114746 0.66529315710067749
0.446727782487869263 0.360000014305114746 0.681035339832305908
0.470404326915740967 0.360000014305114746 0.681035339832305908
0.478296488523483276 0.360000014305114746 0.669228672981262207
0.474350392818450928 0.360000014305114746 0.641679823398590088
0.478296488523483276 0.360000014305114746 0.637744247913360596
0.474350392818450928 0.360000014305114746 0.622002065181732178
0.470404326915740967 0.360000014305114746 0.618066549301147461
0.446727782487869263 0.360000014305114746 0.622002065181732178
0.430943399667739868 0.360000014305114746 0.641679823398590088
0.430943399667739868 0.360000014305114746 0.649550914764404297
0.42699730396270752 0.360000014305114746 0.653486490249633789
0.517757415771484375 0.360000014305114746 0.799101829528808594
0.53748786449432373 0.360000014305114746 0.814844071865081787
0.549326121807098389 0.360000014305114746 0.814844071865081787
0.545380055904388428 0.360000014305114746 0.803037405014038086
0.521703481674194336 0.360000014305114746 0.779424071311950684
0.517757415771484375 0.360000014305114746 0.779424071311950684
0.513811290264129639 0.360000014305114746 0.783359646797180176
0.545380055904388428 0.360000014305114746 0.200898140668869019
0.557218313217163086 0.360000014305114746 0.208769246935844421
0.580894887447357178 0.360000014305114746 0.204833701252937317
0.588787078857421875 0.360000014305114746 0.196962594985961914
0.588787078857421875 0.360000014305114746 0.19302704930305481
0.576948761940002441 0.360000014305114746 0.185155943036079407
0.549326121807098389 0.360000014305114746 0.189091488718986511
0.545380055904388428 0.360000014305114746 0.19302704930305481
0.367805957794189453 0.379999995231628418 0.452773392200469971
0.375698119401931763 0.379999995231628418 0.46064448356628418
0.423051208257675171 0.379999995231628418 0.452773392200469971
0.430943399667739868 0.379999995231628418 0.452773392200469971
0.434889495372772217 0.379999995231628418 0.44096672534942627
0.430943399667739868 0.379999995231628418 0.437031179666519165
0.423051208257675171 0.379999995231628418 0.389804571866989136
0.395428568124771118 0.379999995231628418 0.385869026184082031
0.363859862089157104 0.379999995231628418 0.405546784400939941
0.363859862089157104 0.379999995231628418 0.41341787576675415
0.359913766384124756 0.379999995231628418 0.417353421449661255
0.367805957794189453 0.379999995231628418 0.55903327465057373
0.371752023696899414 0.379999995231628418 0.58658212423324585
0.38359031081199646 0.379999995231628418 0.590517640113830566
0.387536406517028809 0.379999995231628418 0.58658212423324585
0.430943399667739868 0.379999995231628418 0.578711032867431641
0.434889495372772217 0.379999995231628418 0.551162183284759521
0.430943399667739868 0.379999995231628418 0.547226607799530029
0.423051208257675171 0.379999995231628418 0.515742182731628418
0.41910514235496521 0.379999995231628418 0.511806666851043701
0.387536406517028809 0.379999995231628418 0.515742182731628418
0.367805957794189453 0.379999995231628418 0.535419940948486328
0.423051208257675171 0.379999995231628418 0.66529315710067749
0.450673848390579224 0.379999995231628418 0.684970855712890625
0.470404326915740967 0.379999995231628418 0.681035339832305908
0.482242584228515625 0.379999995231628418 0.669228672981262207
0.474350392818450928 0.379999995231628418 0.618066549301147461
0.470404326915740967 0.379999995231628418 0.614130973815917969
0.442781686782836914 0.379999995231628418 0.618066549301147461
0.42699730396270752 0.379999995231628418 0.637744247913360596
0.42699730396270752 0.379999995231628418 0.64561539888381958
0.423051208257675171 0.379999995231628418 0.649550914764404297
0.509865224361419678 0.379999995231628418 0.795166313648223877
0.525649607181549072 0.379999995231628418 0.806972980499267578
0.529595673084259033 0.379999995231628418 0.803037405014038086
0.529595673084259033 0.379999995231628418 0.795166313648223877
0.513811290264129639 0.379999995231628418 0.771552979946136475
0.513811290264129639 0.379999995231628418 0.767617464065551758
0.505919158458709717 0.379999995231628418 0.767617464065551758
0.53354179859161377 0.379999995231628418 0.216640353202819824
0.53748786449432373 0.379999995231628418 0.220575898885726929
0.57300269603729248 0.379999995231628418 0.216640353202819824
0.584840953350067139 0.379999995231628418 0.216640353202819824
0.588787078857421875 0.379999995231628418 0.212704792618751526
0.588787078857421875 0.379999995231628418 0.196962594985961914
0.576948761940002441 0.379999995231628418 0.185155943036079407
0.53748786449432373 0.379999995231628418 0.189091488718986511
0.53354179859161377 0.379999995231628418 0.19302704930305481
0.359913766384124756 0.400000005960464478 0.433095633983612061
0.363859862089157104 0.400000005960464478 0.448837846517562866
0.371752023696899414 0.400000005960464478 0.456708937883377075
0.415159046649932861 0.400000005960464478 0.448837846517562866
0.41910514235496521 0.400000005960464478 0.444902300834655762
0.415159046649932861 0.400000005960464478 0.397675693035125732
0.403320759534835815 0.400000005960464478 0.389804571866989136
0.371752023696899414 0.400000005960464478 0.39374011754989624
0.359913766384124756 0.400000005960464478 0.409482330083847046
0.363859862089157104 0.400000005960464478 0.555097699165344238
0.371752023696899414 0.400000005960464478 0.58658212423324585
0.42699730396270752 0.400000005960464478 0.574775457382202148
0.434889495372772217 0.400000005960464478 0.562968790531158447
0.430943399667739868 0.400000005960464478 0.55903327465057373
0.41910514235496521 0.400000005960464478 0.51967775821685791
0.411212950944900513 0.400000005960464478 0.511806666851043701
0.375698119401931763 0.400000005960464478 0.515742182731628418
0.363859862089157104 0.400000005960464478 0.527548849582672119
0.363859862089157104 0.400000005960464478 0.543291032314300537
0.359913766384124756 0.400000005960464478 0.547226607799530029
0.42699730396270752 0.400000005960464478 0.661357581615447998
0.454619944095611572 0.400000005960464478 0.681035339832305908
0.470404326915740967 0.400000005960464478 0.677099764347076416
0.478296488523483276 0.400000005960464478 0.669228672981262207
0.470404326915740967 0.400000005960464478 0.633808732032775879
0.450673848390579224 0.400000005960464478 0.618066549301147461
0.434889495372772217 0.400000005960464478 0.618066549301147461
0.423051208257675171 0.400000005960464478 0.629873156547546387
0.49802696704864502 0.400000005960464478 0.787295222282409668
0.509865224361419678 0.400000005960464478 0.795166313648223877
0.517757415771484375 0.400000005960464478 0.795166313648223877
0.521703481674194336 0.400000005960464478 0.799101829528808594
0.509865224361419678 0.400000005960464478 0.759746372699737549
0.50197303295135498 0.400000005960464478 0.751875221729278564
0.49802696704864502 0.400000005960464478 0.751875221729278564
0.494080871343612671 0.400000005960464478 0.755810797214508057
0.53354179859161377 0.400000005960464478 0.220575898885726929
0.584840953350067139 0.400000005960464478 0.216640353202819824
0.584840953350067139 0.400000005960464478 0.212704792618751526
0.588787078857421875 0.400000005960464478 0.208769246935844421
0.584840953350067139 0.400000005960464478 0.204833701252937317
0.584840953350067139 0.400000005960464478 0.196962594985961914
0.569056570529937744 0.400000005960464478 0.185155943036079407
0.53748786449432373 0.400000005960464478 0.19302704930305481
0.53354179859161377 0.400000005960464478 0.196962594985961914
0.359913766384124756 0.419999986886978149 0.444902300834655762
0.367805957794189453 0.419999986886978149 0.452773392200469971
0.399374663829803467 0.419999986886978149 0.444902300834655762
0.411212950944900513 0.419999986886978149 0.433095633983612061
0.411212950944900513 0.419999986886978149 0.421288996934890747
0.395428568124771118 0.419999986886978149 0.401611238718032837
0.371752023696899414 0.419999986886978149 0.39374011754989624
0.355967670679092407 0.419999986886978149 0.41341787576675415
0.371752023696899414 0.419999986886978149 0.578711032867431641
0.375698119401931763 0.419999986886978149 0.582646548748016357
0.387536406517028809 0.419999986886978149 0.582646548748016357
0.41910514235496521 0.419999986886978149 0.55903327465057373
0.423051208257675171 0.419999986886978149 0.551162183284759521
0.415159046649932861 0.419999986886978149 0.531484425067901611
0.391482502222061157 0.419999986886978149 0.511806666851043701
0.367805957794189453 0.419999986886978149 0.515742182731628418
0.359913766384124756 0.419999986886978149 0.531484425067901611
0.411212950944900513 0.419999986886978149 0.653486490249633789
0.423051208257675171 0.419999986886978149 0.66529315710067749
0.458566039800643921 0.419999986886978149 0.661357581615447998
0.466458231210708618 0.419999986886978149 0.649550914764404297
0.458566039800643921 0.419999986886978149 0.614130973815917969
0.450673848390579224 0.419999986886978149 0.60625988245010376
0.438835591077804565 0.419999986886978149 0.60625988245010376
0.407266855239868164 0.419999986886978149 0.629873156547546387
0.482242584228515625 0.419999986886978149 0.767617464065551758
0.513811290264129639 0.419999986886978149 0.791230738162994385
0.505919158458709717 0.419999986886978149 0.744004130363464355
0.490134775638580322 0.419999986886978149 0.732197463512420654
0.486188679933547974 0.419999986886978149 0.732197463512420654
0.478296488523483276 0.419999986886978149 0.740068614482879639
0.53354179859161377 0.419999986886978149 0.220575898885726929
0.53748786449432373 0.419999986886978149 0.224511444568634033
0.576948761940002441 0.419999986886978149 0.216640353202819824
0.580894887447357178 0.419999986886978149 0.212704792618751526
0.576948761940002441 0.419999986886978149 0.196962594985961914
0.565110504627227783 0.419999986886978149 0.189091488718986511
0.53748786449432373 0.419999986886978149 0.196962594985961914
0.53354179859161377 0.419999986886978149 0.200898140668869019
0.355967670679092407 0.439999997615814209 0.433095633983612061
0.355967670679092407 0.439999997615814209 0.444902300834655762
0.379644215106964111 0.439999997615814209 0.448837846517562866
0.387536406517028809 0.439999997615814209 0.444902300834655762
0.403320759534835815 0.439999997615814209 0.433095633983612061
0.403320759534835815 0.439999997615814209 0.425224542617797852
0.379644215106964111 0.439999997615814209 0.397675693035125732
0.363859862089157104 0.439999997615814209 0.397675693035125732
0.363859862089157104 0.439999997615814209 0.401611238718032837
0.355967670679092407 0.439999997615814209 0.409482330083847046
0.359913766384124756 0.439999997615814209 0.547226607799530029
0.363859862089157104 0.439999997615814209 0.562968790531158447
0.375698119401931763 0.439999997615814209 0.574775457382202148
0.391482502222061157 0.439999997615814209 0.570839941501617432
0.411212950944900513 0.439999997615814209 0.551162183284759521
0.411212950944900513 0.439999997615814209 0.53935551643371582
0.379644215106964111 0.439999997615814209 0.511806666851043701
0.363859862089157104 0.439999997615814209 0.515742182731628418
0.363859862089157104 0.439999997615814209 0.51967775821685791
0.359913766384124756 0.439999997615814209 0.523613333702087402
0.407266855239868164 0.439999997615814209 0.657422006130218506
0.41910514235496521 0.439999997615814209 0.669228672981262207
0.46251213550567627 0.439999997615814209 0.661357581615447998
0.470404326915740967 0.439999997615814209 0.649550914764404297
0.470404326915740967 0.439999997615814209 0.629873156547546387
0.446727782487869263 0.439999997615814209 0.602324306964874268
0.403320759534835815 0.439999997615814209 0.614130973815917969
0.399374663829803467 0.439999997615814209 0.618066549301147461
0.399374663829803467 0.439999997615814209 0.622002065181732178
0.395428568124771118 0.439999997615814209 0.62593764066696167
0.478296488523483276 0.439999997615814209 0.763681888580322266
0.49802696704864502 0.439999997615814209 0.779424071311950684
0.50197303295135498 0.439999997615814209 0.779424071311950684
0.509865224361419678 0.439999997615814209 0.767617464065551758
0.513811290264129639 0.439999997615814209 0.751875221729278564
0.509865224361419678 0.439999997615814209 0.747939705848693848
0.50197303295135498 0.439999997615814209 0.720390856266021729
0.494080871343612671 0.439999997615814209 0.71251976490020752
0.474350392818450928 0.439999997615814209 0.716455280780792236
0.474350392818450928 0.439999997615814209 0.720390856266021729
0.470404326915740967 0.439999997615814209 0.724326372146606445
0.529595673084259033 0.439999997615814209 0.232382550835609436
0.565110504627227783 0.439999997615814209 0.228447005152702332
0.576948761940002441 0.439999997615814209 0.212704792618751526
0.57300269603729248 0.439999997615814209 0.200898140668869019
0.557218313217163086 0.439999997615814209 0.196962594985961914
0.553272247314453125 0.439999997615814209 0.19302704930305481
0.549326121807098389 0.439999997615814209 0.196962594985961914
0.541433930397033691 0.439999997615814209 0.196962594985961914
0.525649607181549072 0.439999997615814209 0.216640353202819824
0.355967670679092407 0.460000008344650269 0.444902300834655762
0.38359031081199646 0.460000008344650269 0.444902300834655762
0.399374663829803467 0.460000008344650269 0.429160088300704956
0.395428568124771118 0.460000008344650269 0.417353421449661255
0.391482502222061157 0.460000008344650269 0.417353421449661255
0.371752023696899414 0.460000008344650269 0.397675693035125732
0.359913766384124756 0.460000008344650269 0.397675693035125732
0.352021574974060059 0.460000008344650269 0.429160088300704956
0.359913766384124756 0.460000008344650269 0.555097699165344238
0.371752023696899414 0.460000008344650269 0.566904366016387939
0.387536406517028809 0.460000008344650269 0.562968790531158447
0.403320759534835815 0.460000008344650269 0.547226607799530029
0.403320759534835815 0.460000008344650269 0.535419940948486328
0.375698119401931763 0.460000008344650269 0.511806666851043701
0.363859862089157104 0.460000008344650269 0.511806666851043701
0.359913766384124756 0.460000008344650269 0.515742182731628418
0.359913766384124756 0.460000008344650269 0.523613333702087402
0.355967670679092407 0.460000008344650269 0.527548849582672119
0.399374663829803467 0.460000008344650269 0.64561539888381958
0.41910514235496521 0.460000008344650269 0.66529315710067749
0.442781686782836914 0.460000008344650269 0.661357581615447998
0.458566039800643921 0.460000008344650269 0.649550914764404297
0.458566039800643921 0.460000008344650269 0.629873156547546387
0.438835591077804565 0.460000008344650269 0.60625988245010376
0.430943399667739868 0.460000008344650269 0.602324306964874268
0.407266855239868164 0.460000008344650269 0.60625988245010376
0.395428568124771118 0.460000008344650269 0.618066549301147461
0.434889495372772217 0.460000008344650269 0.724326372146606445
0.442781686782836914 0.460000008344650269 0.732197463512420654
0.458566039800643921 0.460000008344650269 0.736133038997650146
0.478296488523483276 0.460000008344650269 0.755810797214508057
0.482242584228515625 0.460000008344650269 0.771552979946136475
0.494080871343612671 0.460000008344650269 0.775488555431365967
0.505919158458709717 0.460000008344650269 0.767617464065551758
0.509865224361419678 0.460000008344650269 0.767617464065551758
0.513811290264129639 0.460000008344650269 0.744004130363464355
0.509865224361419678 0.460000008344650269 0.736133038997650146
0.482242584228515625 0.460000008344650269 0.71251976490020752
0.474350392818450928 0.460000008344650269 0.71251976490020752
0.466458231210708618 0.460000008344650269 0.704648613929748535
0.446727782487869263 0.460000008344650269 0.704648613929748535
0.434889495372772217 0.460000008344650269 0.716455280780792236
0.517757415771484375 0.460000008344650269 0.244189202785491943
0.521703481674194336 0.460000008344650269 0.248124748468399048
0.561164438724517822 0.460000008344650269 0.240253657102584839
0.57300269603729248 0.460000008344650269 0.228447005152702332
0.569056570529937744 0.460000008344650269 0.204833701252937317
0.549326121807098389 0.460000008344650269 0.196962594985961914
0.545380055904388428 0.460000008344650269 0.200898140668869019
0.53748786449432373 0.460000008344650269 0.200898140668869019
0.517757415771484375 0.460000008344650269 0.220575898885726929
0.352021574974060059 0.47999998927116394 0.433095633983612061
0.352021574974060059 0.47999998927116394 0.437031179666519165
0.363859862089157104 0.47999998927116394 0.444902300834655762
0.387536406517028809 0.47999998927116394 0.44096672534942627
0.395428568124771118 0.47999998927116394 0.433095633983612061
0.391482502222061157 0.47999998927116394 0.417353421449661255
0.367805957794189453 0.47999998927116394 0.397675693035125732
0.359913766384124756 0.47999998927116394 0.397675693035125732
0.355967670679092407 0.47999998927116394 0.401611238718032837
0.355967670679092407 0.47999998927116394 0.405546784400939941
0.352021574974060059 0.47999998927116394 0.409482330083847046
0.355967670679092407 0.47999998927116394 0.543291032314300537
0.355967670679092407 0.47999998927116394 0.551162183284759521
0.363859862089157104 0.47999998927116394 0.55903327465057373
0.379644215106964111 0.47999998927116394 0.55903327465057373
0.387536406517028809 0.47999998927116394 0.551162183284759521
0.391482502222061157 0.47999998927116394 0.551162183284759521
0.395428568124771118 0.47999998927116394 0.531484425067901611
0.391482502222061157 0.47999998927116394 0.523613333702087402
0.375698119401931763 0.47999998927116394 0.511806666851043701
0.359913766384124756 0.47999998927116394 0.511806666851043701
0.355967670679092407 0.47999998927116394 0.515742182731628418
0.355967670679092407 0.47999998927116394 0.531484425067901611
0.352021574974060059 0.47999998927116394 0.535419940948486328
0.391482502222061157 0.47999998927116394 0.633808732032775879
0.407266855239868164 0.47999998927116394 0.649550914764404297
0.42699730396270752 0.47999998927116394 0.64561539888381958
0.434889495372772217 0.47999998927116394 0.633808732032775879
0.430943399667739868 0.47999998927116394 0.610195398330688477
0.41910514235496521 0.47999998927116394 0.60625988245010376
0.415159046649932861 0.47999998927116394 0.602324306964874268
0.411212950944900513 0.47999998927116394 0.60625988245010376
0.395428568124771118 0.47999998927116394 0.60625988245010376
0.391482502222061157 0.47999998927116394 0.610195398330688477
0.423051208257675171 0.47999998927116394 0.724326372146606445
0.446727782487869263 0.47999998927116394 0.744004130363464355
0.458566039800643921 0.47999998927116394 0.744004130363464355
0.474350392818450928 0.47999998927116394 0.755810797214508057
0.486188679933547974 0.47999998927116394 0.755810797214508057
0.490134775638580322 0.47999998927116394 0.759746372699737549
0.490134775638580322 0.47999998927116394 0.763681888580322266
0.49802696704864502 0.47999998927116394 0.755810797214508057
0.494080871343612671 0.47999998927116394 0.751875221729278564
0.490134775638580322 0.47999998927116394 0.732197463512420654
0.494080871343612671 0.47999998927116394 0.728261947631835938
0.494080871343612671 0.47999998927116394 0.720390856266021729
0.470404326915740967 0.47999998927116394 0.692842006683349609
0.46251213550567627 0.47999998927116394 0.688906431198120117
0.430943399667739868 0.47999998927116394 0.696777522563934326
0.423051208257675171 0.47999998927116394 0.704648613929748535
0.509865224361419678 0.47999998927116394 0.248124748468399048
0.509865224361419678 0.47999998927116394 0.252060294151306152
0.517757415771484375 0.47999998927116394 0.259931415319442749
0.525649607181549072 0.47999998927116394 0.259931415319442749
0.529595673084259033 0.47999998927116394 0.263866961002349854
0.53354179859161377 0.47999998927116394 0.259931415319442749
0.565110504627227783 0.47999998927116394 0.252060294151306152
0.57300269603729248 0.47999998927116394 0.244189202785491943
0.576948761940002441 0.47999998927116394 0.224511444568634033
0.569056570529937744 0.47999998927116394 0.212704792618751526
0.569056570529937744 0.47999998927116394 0.208769246935844421
0.541433930397033691 0.47999998927116394 0.200898140668869019
0.509865224361419678 0.47999998927116394 0.224511444568634033
0.34807547926902771 0.5 0.433095633983612061
0.355967670679092407 0.5 0.44096672534942627
0.391482502222061157 0.5 0.437031179666519165
0.391482502222061157 0.5 0.433095633983612061
0.395428568124771118 0.5 0.429160088300704956
0.38359031081199646 0.5 0.409482330083847046
0.379644215106964111 0.5 0.409482330083847046
0.363859862089157104 0.5 0.397675693035125732
0.359913766384124756 0.5 0.397675693035125732
0.34807547926902771 0.5 0.41341787576675415
0.352021574974060059 0.5 0.53935551643371582
0.352021574974060059 0.5 0.543291032314300537
0.363859862089157104 0.5 0.555097699165344238
0.379644215106964111 0.5 0.551162183284759521
0.391482502222061157 0.5 0.53935551643371582
0.387536406517028809 0.5 0.51967775821685791
0.367805957794189453 0.5 0.507871091365814209
0.359913766384124756 0.5 0.507871091365814209
0.352021574974060059 0.5 0.515742182731628418
0.391482502222061157 0.5 0.637744247913360596
0.411212950944900513 0.5 0.641679823398590088
0.423051208257675171 0.5 0.629873156547546387
0.423051208257675171 0.5 0.610195398330688477
0.41910514235496521 0.5 0.610195398330688477
0.411212950944900513 0.5 0.602324306964874268
0.387536406517028809 0.5 0.602324306964874268
0.38359031081199646 0.5 0.60625988245010376
0.430943399667739868 0.5 0.736133038997650146
0.442781686782836914 0.5 0.744004130363464355
0.450673848390579224 0.5 0.744004130363464355
0.454619944095611572 0.5 0.747939705848693848
0.458566039800643921 0.5 0.744004130363464355
0.482242584228515625 0.5 0.740068614482879639
0.490134775638580322 0.5 0.732197463512420654
0.482242584228515625 0.5 0.704648613929748535
0.46251213550567627 0.5 0.688906431198120117
0.430943399667739868 0.5 0.692842006683349609
0.42699730396270752 0.5 0.696777522563934326
0.42699730396270752 0.5 0.700713098049163818
0.423051208257675171 0.5 0.704648613929748535
0.513811290264129639 0.5 0.252060294151306152
0.549326121807098389 0.5 0.255995869636535645
0.57300269603729248 0.5 0.252060294151306152
0.576948761940002441 0.5 0.232382550835609436
0.565110504627227783 0.5 0.212704792618751526
0.541433930397033691 0.5 0.204833701252937317
0.509865224361419678 0.5 0.228447005152702332
0.34807547926902771 0.519999980926513672 0.527548849582672119
0.352021574974060059 0.519999980926513672 0.543291032314300537
0.355967670679092407 0.519999980926513672 0.547226607799530029
0.375698119401931763 0.519999980926513672 0.547226607799530029
0.387536406517028809 0.519999980926513672 0.535419940948486328
0.387536406517028809 0.519999980926513672 0.51967775821685791
0.375698119401931763 0.519999980926513672 0.507871091365814209
0.359913766384124756 0.519999980926513672 0.503935575485229492
0.352021574974060059 0.519999980926513672 0.507871091365814209
0.34807547926902771 0.519999980926513672 0.511806666851043701
0.34807547926902771 0.519999980926513672 0.515742182731628418
0.344129383563995361 0.519999980926513672 0.51967775821685791
0.34807547926902771 0.519999980926513672 0.433095633983612061
0.359913766384124756 0.519999980926513672 0.44096672534942627
0.387536406517028809 0.519999980926513672 0.437031179666519165
0.391482502222061157 0.519999980926513672 0.433095633983612061
0.387536406517028809 0.519999980926513672 0.41341787576675415
0.363859862089157104 0.519999980926513672 0.397675693035125732
0.359913766384124756 0.519999980926513672 0.397675693035125732
0.34807547926902771 0.519999980926513672 0.41341787576675415
0.379644215106964111 0.519999980926513672 0.622002065181732178
0.395428568124771118 0.519999980926513672 0.633808732032775879
0.403320759534835815 0.519999980926513672 0.633808732032775879
0.415159046649932861 0.519999980926513672 0.622002065181732178
0.411212950944900513 0.519999980926513672 0.602324306964874268
0.387536406517028809 0.519999980926513672 0.594453215599060059
0.38359031081199646 0.519999980926513672 0.598388791084289551
0.379644215106964111 0.519999980926513672 0.598388791084289551
0.379644215106964111 0.519999980926513672 0.602324306964874268
0.375698119401931763 0.519999980926513672 0.60625988245010376
0.42699730396270752 0.519999980926513672 0.724326372146606445
