ply
format ascii 1.0
element vertex 791
property float x
property float y
property float z
end_header
0.417992681264877319 0.027450980618596077 0.634159684181213379
0.417992681264877319 0.0509803928434848785 0.630213797092437744
0.417992681264877319 0.0588235296308994293 0.62232208251953125
0.417992681264877319 0.0588235296308994293 0.582863330841064453
0.417992681264877319 0.0588235296308994293 0.547350466251373291
0.417992681264877319 0.0549019612371921539 0.47237887978553772
0.417992681264877319 0.0549019612371921539 0.436866015195846558
0.417992681264877319 0.0549019612371921539 0.401353180408477783
0.417992681264877319 0.0509803928434848785 0.37767791748046875
0.417992681264877319 0.0392156876623630524 0.369786173105239868
0.417992681264877319 0.0156862754374742508 0.365840315818786621
0.417992681264877319 0.0078431377187371254 0.354002684354782104
0.417992681264877319 0.0039215688593685627 0.318489819765090942
0.417992681264877319 0.0156862754374742508 0.318489819765090942
0.417992681264877319 0.0313725508749485016 0.330327451229095459
0.417992681264877319 0.0588235296308994293 0.310598075389862061
0.417992681264877319 0.0666666701436042786 0.310598075389862061
0.417992681264877319 0.070588238537311554 0.306652218103408813
0.417992681264877319 0.827450990676879883 0.37767791748046875
0.417992681264877319 0.831372559070587158 0.373732060194015503
0.417992681264877319 0.858823537826538086 0.373732060194015503
0.417992681264877319 0.874509811401367188 0.389515548944473267
0.417992681264877319 0.882352948188781738 0.389515548944473267
0.417992681264877319 0.882352948188781738 0.393461406230926514
0.417992681264877319 0.894117653369903564 0.401353180408477783
0.417992681264877319 0.882352948188781738 0.448703646659851074
0.417992681264877319 0.878431379795074463 0.448703646659851074
0.417992681264877319 0.839215695858001709 0.476324766874313354
0.417992681264877319 0.768627464771270752 0.492108255624771118
0.417992681264877319 0.764705896377563477 0.496054112911224365
0.417992681264877319 0.737254917621612549 0.503945887088775635
0.417992681264877319 0.725490212440490723 0.496054112911224365
0.417992681264877319 0.721568644046783447 0.496054112911224365
0.417992681264877319 0.717647075653076172 0.5
0.417992681264877319 0.717647075653076172 0.503945887088775635
0.417992681264877319 0.658823549747467041 0.496054112911224365
0.417992681264877319 0.654901981353759766 0.476324766874313354
0.417992681264877319 0.658823549747467041 0.47237887978553772
0.417992681264877319 0.658823549747467041 0.468433022499084473
0.417992681264877319 0.65098041296005249 0.460541278123855591
0.417992681264877319 0.647058844566345215 0.425028413534164429
0.417992681264877319 0.654901981353759766 0.417136669158935547
0.417992681264877319 0.670588254928588867 0.413190782070159912
0.417992681264877319 0.678431391716003418 0.40529903769493103
0.417992681264877319 0.729411780834197998 0.389515548944473267
0.417992681264877319 0.733333349227905273 0.385569661855697632
0.417992681264877319 0.776470601558685303 0.373732060194015503
0.417992681264877319 0.972549021244049072 0.393461406230926514
0.417992681264877319 0.976470589637756348 0.397407293319702148
0.417992681264877319 0.976470589637756348 0.413190782070159912
0.417992681264877319 0.992156863212585449 0.428974270820617676
0.417992681264877319 0.992156863212585449 0.448703646659851074
0.417992681264877319 0.988235294818878174 0.448703646659851074
0.417992681264877319 0.976470589637756348 0.460541278123855591
0.417992681264877319 0.976470589637756348 0.464487135410308838
0.417992681264877319 0.964705884456634521 0.460541278123855591
0.417992681264877319 0.956862747669219971 0.401353180408477783
0.417992681264877319 0.960784316062927246 0.393461406230926514
0.417992681264877319 0.964705884456634521 0.389515548944473267
0.438494503498077393 0.0901960805058479309 0.302706331014633179
0.438494503498077393 0.117647059261798859 0.326381564140319824
0.438494503498077393 0.141176477074623108 0.318489819765090942
0.438494503498077393 0.149019613862037659 0.417136669158935547
0.438494503498077393 0.149019613862037659 0.436866015195846558
0.438494503498077393 0.160784319043159485 0.448703646659851074
0.438494503498077393 0.176470592617988586 0.448703646659851074
0.438494503498077393 0.180392161011695862 0.444757759571075439
0.438494503498077393 0.180392161011695862 0.40529903769493103
0.438494503498077393 0.180392161011695862 0.369786173105239868
0.438494503498077393 0.180392161011695862 0.357948571443557739
0.438494503498077393 0.192156866192817688 0.354002684354782104
0.438494503498077393 0.219607844948768616 0.373732060194015503
0.438494503498077393 0.258823543787002563 0.373732060194015503
0.438494503498077393 0.27058824896812439 0.373732060194015503
0.438494503498077393 0.27843138575553894 0.365840315818786621
0.438494503498077393 0.376470595598220825 0.381623804569244385
0.438494503498077393 0.380392163991928101 0.385569661855697632
0.438494503498077393 0.419607847929000854 0.385569661855697632
0.438494503498077393 0.454901963472366333 0.385569661855697632
0.438494503498077393 0.478431373834609985 0.385569661855697632
0.438494503498077393 0.486274510622024536 0.37767791748046875
0.438494503498077393 0.486274510622024536 0.373732060194015503
0.438494503498077393 0.501960813999176025 0.373732060194015503
0.438494503498077393 0.501960813999176025 0.37767791748046875
0.438494503498077393 0.513725519180297852 0.389515548944473267
0.438494503498077393 0.545098066329956055 0.393461406230926514
0.438494503498077393 0.552941203117370605 0.401353180408477783
0.438494503498077393 0.560784339904785156 0.401353180408477783
0.438494503498077393 0.580392181873321533 0.417136669158935547
0.438494503498077393 0.588235318660736084 0.417136669158935547
0.438494503498077393 0.596078455448150635 0.425028413534164429
0.438494503498077393 0.615686297416687012 0.428974270820617676
0.438494503498077393 0.619607865810394287 0.425028413534164429
0.438494503498077393 0.674509823322296143 0.409244924783706665
0.438494503498077393 0.678431391716003418 0.40529903769493103
0.438494503498077393 0.737254917621612549 0.389515548944473267
0.438494503498077393 0.741176486015319824 0.385569661855697632
0.438494503498077393 0.792156875133514404 0.373732060194015503
0.438494503498077393 0.79607844352722168 0.369786173105239868
0.438494503498077393 0.800000011920928955 0.373732060194015503
0.438494503498077393 0.862745106220245361 0.381623804569244385
0.438494503498077393 0.866666674613952637 0.385569661855697632
0.438494503498077393 0.870588243007659912 0.413190782070159912
0.438494503498077393 0.866666674613952637 0.417136669158935547
0.438494503498077393 0.866666674613952637 0.448703646659851074
0.438494503498077393 0.858823537826538086 0.456595391035079956
0.438494503498077393 0.858823537826538086 0.460541278123855591
0.438494503498077393 0.807843148708343506 0.480270624160766602
0.438494503498077393 0.792156875133514404 0.492108255624771118
0.438494503498077393 0.792156875133514404 0.5
0.438494503498077393 0.788235306739807129 0.503945887088775635
0.438494503498077393 0.7450980544090271 0.496054112911224365
0.438494503498077393 0.741176486015319824 0.5
0.438494503498077393 0.678431391716003418 0.523675262928009033
0.438494503498077393 0.639215707778930664 0.571025729179382324
0.438494503498077393 0.635294139385223389 0.567079842090606689
0.438494503498077393 0.627451002597808838 0.567079842090606689
0.438494503498077393 0.627451002597808838 0.563133955001831055
0.438494503498077393 0.623529434204101562 0.559188127517700195
0.438494503498077393 0.611764729022979736 0.559188127517700195
0.438494503498077393 0.584313750267028809 0.594700932502746582
0.438494503498077393 0.517647087574005127 0.610484480857849121
0.438494503498077393 0.494117647409439087 0.594700932502746582
0.438494503498077393 0.454901963472366333 0.594700932502746582
0.438494503498077393 0.419607847929000854 0.594700932502746582
0.438494503498077393 0.384313732385635376 0.594700932502746582
0.438494503498077393 0.349019616842269897 0.594700932502746582
0.438494503498077393 0.313725501298904419 0.594700932502746582
0.438494503498077393 0.27843138575553894 0.594700932502746582
0.438494503498077393 0.243137255311012268 0.594700932502746582
0.438494503498077393 0.20784313976764679 0.594700932502746582
0.438494503498077393 0.172549024224281311 0.594700932502746582
0.438494503498077393 0.152941182255744934 0.594700932502746582
0.438494503498077393 0.149019613862037659 0.598646819591522217
0.438494503498077393 0.149019613862037659 0.638105571269989014
0.438494503498077393 0.145098045468330383 0.677564322948455811
0.438494503498077393 0.117647059261798859 0.677564322948455811
0.438494503498077393 0.0941176488995552063 0.697293639183044434
0.438494503498077393 0.0588235296308994293 0.693347811698913574
0.438494503498077393 0.0470588244497776031 0.68151015043258667
0.438494503498077393 0.0431372560560703278 0.68151015043258667
0.438494503498077393 0.0431372560560703278 0.677564322948455811
0.438494503498077393 0.035294119268655777 0.669672548770904541
0.438494503498077393 0.0313725508749485016 0.645997285842895508
0.438494503498077393 0.0470588244497776031 0.642051458358764648
0.438494503498077393 0.0588235296308994293 0.630213797092437744
0.438494503498077393 0.0588235296308994293 0.590755105018615723
0.438494503498077393 0.0588235296308994293 0.555242240428924561
0.438494503498077393 0.0549019612371921539 0.484216511249542236
0.438494503498077393 0.0549019612371921539 0.448703646659851074
0.438494503498077393 0.0549019612371921539 0.413190782070159912
0.438494503498077393 0.0549019612371921539 0.37767791748046875
0.438494503498077393 0.0549019612371921539 0.373732060194015503
0.438494503498077393 0.0431372560560703278 0.361894428730010986
0.438494503498077393 0.0117647061124444008 0.354002684354782104
0.438494503498077393 0.0039215688593685627 0.342165052890777588
0.438494503498077393 0 0.314543962478637695
0.438494503498077393 0.0078431377187371254 0.314543962478637695
0.438494503498077393 0.0117647061124444008 0.310598075389862061
0.438494503498077393 0.0313725508749485016 0.322435706853866577
0.438494503498077393 0.0431372560560703278 0.318489819765090942
0.438494503498077393 0.0627451017498970032 0.302706331014633179
0.438494503498077393 0.980392158031463623 0.40529903769493103
0.438494503498077393 0.984313726425170898 0.409244924783706665
0.438494503498077393 0.984313726425170898 0.448703646659851074
0.438494503498077393 0.984313726425170898 0.464487135410308838
0.438494503498077393 0.980392158031463623 0.468433022499084473
0.438494503498077393 0.976470589637756348 0.464487135410308838
0.438494503498077393 0.972549021244049072 0.464487135410308838
0.438494503498077393 0.972549021244049072 0.425028413534164429
0.438494503498077393 0.972549021244049072 0.40529903769493103
0.458996325731277466 0.0980392172932624817 0.302706331014633179
0.458996325731277466 0.117647059261798859 0.322435706853866577
0.458996325731277466 0.137254908680915833 0.314543962478637695
0.458996325731277466 0.145098045468330383 0.322435706853866577
0.458996325731277466 0.145098045468330383 0.361894428730010986
0.458996325731277466 0.145098045468330383 0.397407293319702148
0.458996325731277466 0.145098045468330383 0.432920157909393311
0.458996325731277466 0.149019613862037659 0.444757759571075439
0.458996325731277466 0.156862750649452209 0.452649533748626709
0.458996325731277466 0.156862750649452209 0.464487135410308838
0.458996325731277466 0.149019613862037659 0.47237887978553772
0.458996325731277466 0.149019613862037659 0.511837601661682129
0.458996325731277466 0.149019613862037659 0.547350466251373291
0.458996325731277466 0.145098045468330383 0.578917443752288818
0.458996325731277466 0.149019613862037659 0.582863330841064453
0.458996325731277466 0.149019613862037659 0.62232208251953125
0.458996325731277466 0.149019613862037659 0.657834947109222412
0.458996325731277466 0.149019613862037659 0.677564322948455811
0.458996325731277466 0.145098045468330383 0.68151015043258667
0.458996325731277466 0.117647059261798859 0.68151015043258667
0.458996325731277466 0.0980392172932624817 0.701239526271820068
0.458996325731277466 0.0784313753247261047 0.705185413360595703
0.458996325731277466 0.0745098069310188293 0.701239526271820068
0.458996325731277466 0.0509803928434848785 0.693347811698913574
0.458996325731277466 0.0392156876623630524 0.677564322948455811
0.458996325731277466 0.035294119268655777 0.649943172931671143
0.458996325731277466 0.0470588244497776031 0.649943172931671143
0.458996325731277466 0.0588235296308994293 0.638105571269989014
0.458996325731277466 0.0588235296308994293 0.598646819591522217
0.458996325731277466 0.0588235296308994293 0.563133955001831055
0.458996325731277466 0.0549019612371921539 0.492108255624771118
0.458996325731277466 0.0549019612371921539 0.456595391035079956
0.458996325731277466 0.0549019612371921539 0.421082526445388794
0.458996325731277466 0.0549019612371921539 0.385569661855697632
0.458996325731277466 0.0509803928434848785 0.361894428730010986
0.458996325731277466 0.0431372560560703278 0.354002684354782104
0.458996325731277466 0.0078431377187371254 0.346110939979553223
0.458996325731277466 0.0039215688593685627 0.342165052890777588
0.458996325731277466 0 0.310598075389862061
0.458996325731277466 0.0078431377187371254 0.310598075389862061
0.458996325731277466 0.0117647061124444008 0.306652218103408813
0.458996325731277466 0.0235294122248888016 0.314543962478637695
0.458996325731277466 0.0431372560560703278 0.314543962478637695
0.458996325731277466 0.0627451017498970032 0.298760473728179932
0.458996325731277466 0.262745112180709839 0.373732060194015503
0.458996325731277466 0.266666680574417114 0.369786173105239868
0.458996325731277466 0.329411774873733521 0.365840315818786621
0.458996325731277466 0.356862753629684448 0.361894428730010986
0.458996325731277466 0.360784322023391724 0.365840315818786621
0.458996325731277466 0.364705890417098999 0.361894428730010986
0.458996325731277466 0.403921574354171753 0.361894428730010986
0.458996325731277466 0.466666668653488159 0.373732060194015503
0.458996325731277466 0.470588237047195435 0.37767791748046875
0.458996325731277466 0.47450980544090271 0.373732060194015503
0.458996325731277466 0.478431373834609985 0.37767791748046875
0.458996325731277466 0.541176497936248779 0.389515548944473267
0.458996325731277466 0.545098066329956055 0.385569661855697632
0.458996325731277466 0.647058844566345215 0.401353180408477783
0.458996325731277466 0.737254917621612549 0.385569661855697632
0.458996325731277466 0.741176486015319824 0.381623804569244385
0.458996325731277466 0.792156875133514404 0.37767791748046875
0.458996325731277466 0.79607844352722168 0.373732060194015503
0.458996325731277466 0.800000011920928955 0.37767791748046875
0.458996325731277466 0.84705883264541626 0.389515548944473267
0.458996325731277466 0.850980401039123535 0.393461406230926514
0.458996325731277466 0.850980401039123535 0.421082526445388794
0.458996325731277466 0.84705883264541626 0.421082526445388794
0.458996325731277466 0.815686285495758057 0.468433022499084473
0.458996325731277466 0.815686285495758057 0.47237887978553772
0.458996325731277466 0.800000011920928955 0.484216511249542236
0.458996325731277466 0.800000011920928955 0.503945887088775635
0.458996325731277466 0.792156875133514404 0.511837601661682129
0.458996325731277466 0.79607844352722168 0.559188127517700195
0.458996325731277466 0.792156875133514404 0.563133955001831055
0.458996325731277466 0.792156875133514404 0.567079842090606689
0.458996325731277466 0.75294119119644165 0.571025729179382324
0.458996325731277466 0.749019622802734375 0.567079842090606689
0.458996325731277466 0.741176486015319824 0.567079842090606689
0.458996325731277466 0.737254917621612549 0.563133955001831055
0.458996325731277466 0.737254917621612549 0.539458751678466797
0.458996325731277466 0.7450980544090271 0.531566977500915527
0.458996325731277466 0.749019622802734375 0.515783488750457764
0.458996325731277466 0.75294119119644165 0.511837601661682129
0.458996325731277466 0.749019622802734375 0.50789177417755127
0.458996325731277466 0.717647075653076172 0.511837601661682129
0.458996325731277466 0.65098041296005249 0.567079842090606689
0.458996325731277466 0.65098041296005249 0.571025729179382324
0.458996325731277466 0.635294139385223389 0.582863330841064453
0.458996325731277466 0.627451002597808838 0.582863330841064453
0.458996325731277466 0.623529434204101562 0.578917443752288818
0.458996325731277466 0.572549045085906982 0.618376195430755615
0.458996325731277466 0.533333361148834229 0.626267969608306885
0.458996325731277466 0.529411792755126953 0.62232208251953125
0.458996325731277466 0.490196079015731812 0.610484480857849121
0.458996325731277466 0.478431373834609985 0.598646819591522217
0.458996325731277466 0.447058826684951782 0.602592706680297852
0.458996325731277466 0.439215689897537231 0.590755105018615723
0.458996325731277466 0.352941185235977173 0.574971616268157959
0.458996325731277466 0.349019616842269897 0.571025729179382324
0.458996325731277466 0.258823543787002563 0.563133955001831055
0.458996325731277466 0.262745112180709839 0.559188127517700195
0.458996325731277466 0.203921571373939514 0.488162368535995483
0.458996325731277466 0.203921571373939514 0.480270624160766602
0.458996325731277466 0.168627455830574036 0.452649533748626709
0.458996325731277466 0.180392161011695862 0.452649533748626709
0.458996325731277466 0.184313729405403137 0.448703646659851074
0.458996325731277466 0.188235297799110413 0.361894428730010986
0.458996325731277466 0.188235297799110413 0.357948571443557739
0.458996325731277466 0.992156863212585449 0.417136669158935547
0.458996325731277466 0.996078431606292725 0.464487135410308838
0.458996325731277466 0.988235294818878174 0.47237887978553772
0.458996325731277466 0.980392158031463623 0.460541278123855591
0.458996325731277466 0.980392158031463623 0.421082526445388794
0.458996325731277466 0.980392158031463623 0.417136669158935547
0.458996325731277466 0.988235294818878174 0.409244924783706665
0.479498177766799927 0.0862745121121406555 0.294814586639404297
0.479498177766799927 0.0941176488995552063 0.298760473728179932
0.479498177766799927 0.117647059261798859 0.318489819765090942
0.479498177766799927 0.141176477074623108 0.314543962478637695
0.479498177766799927 0.145098045468330383 0.369786173105239868
0.479498177766799927 0.145098045468330383 0.40529903769493103
0.479498177766799927 0.145098045468330383 0.440811902284622192
0.479498177766799927 0.145098045468330383 0.476324766874313354
0.479498177766799927 0.145098045468330383 0.511837601661682129
0.479498177766799927 0.145098045468330383 0.547350466251373291
0.479498177766799927 0.145098045468330383 0.582863330841064453
0.479498177766799927 0.149019613862037659 0.657834947109222412
0.479498177766799927 0.149019613862037659 0.68151015043258667
0.479498177766799927 0.145098045468330383 0.685456037521362305
0.479498177766799927 0.121568627655506134 0.68151015043258667
0.479498177766799927 0.0901960805058479309 0.705185413360595703
0.479498177766799927 0.0588235296308994293 0.701239526271820068
0.479498177766799927 0.0392156876623630524 0.673618435859680176
0.479498177766799927 0.0392156876623630524 0.661780834197998047
0.479498177766799927 0.035294119268655777 0.657834947109222412
0.479498177766799927 0.0431372560560703278 0.649943172931671143
0.479498177766799927 0.0509803928434848785 0.649943172931671143
0.479498177766799927 0.0588235296308994293 0.642051458358764648
0.479498177766799927 0.0588235296308994293 0.602592706680297852
0.479498177766799927 0.0588235296308994293 0.567079842090606689
0.479498177766799927 0.0549019612371921539 0.511837601661682129
0.479498177766799927 0.0588235296308994293 0.50789177417755127
0.479498177766799927 0.0549019612371921539 0.440811902284622192
0.479498177766799927 0.0549019612371921539 0.40529903769493103
0.479498177766799927 0.0549019612371921539 0.369786173105239868
0.479498177766799927 0.0549019612371921539 0.361894428730010986
0.479498177766799927 0.0392156876623630524 0.350056827068328857
0.479498177766799927 0.0117647061124444008 0.346110939979553223
0.479498177766799927 0.0039215688593685627 0.338219195604324341
0.479498177766799927 0 0.310598075389862061
0.479498177766799927 0.0039215688593685627 0.306652218103408813
0.479498177766799927 0.0392156876623630524 0.314543962478637695
0.479498177766799927 0.0588235296308994293 0.298760473728179932
0.479498177766799927 0.403921574354171753 0.354002684354782104
0.479498177766799927 0.439215689897537231 0.354002684354782104
0.479498177766799927 0.498039215803146362 0.365840315818786621
0.479498177766799927 0.505882382392883301 0.373732060194015503
0.479498177766799927 0.545098066329956055 0.385569661855697632
0.479498177766799927 0.54901963472366333 0.381623804569244385
0.479498177766799927 0.674509823322296143 0.393461406230926514
0.479498177766799927 0.678431391716003418 0.389515548944473267
0.479498177766799927 0.780392169952392578 0.373732060194015503
0.479498177766799927 0.784313738346099854 0.37767791748046875
0.479498177766799927 0.79607844352722168 0.37767791748046875
0.479498177766799927 0.815686285495758057 0.397407293319702148
0.479498177766799927 0.819607853889465332 0.460541278123855591
0.479498177766799927 0.819607853889465332 0.496054112911224365
0.479498177766799927 0.815686285495758057 0.519729375839233398
0.479498177766799927 0.819607853889465332 0.523675262928009033
0.479498177766799927 0.815686285495758057 0.567079842090606689
0.479498177766799927 0.807843148708343506 0.574971616268157959
0.479498177766799927 0.764705896377563477 0.571025729179382324
0.479498177766799927 0.760784327983856201 0.574971616268157959
0.479498177766799927 0.725490212440490723 0.578917443752288818
0.479498177766799927 0.717647075653076172 0.571025729179382324
0.479498177766799927 0.713725507259368896 0.555242240428924561
0.479498177766799927 0.717647075653076172 0.551296353340148926
0.479498177766799927 0.717647075653076172 0.527621090412139893
0.479498177766799927 0.713725507259368896 0.523675262928009033
0.479498177766799927 0.698039233684539795 0.527621090412139893
0.479498177766799927 0.654901981353759766 0.563133955001831055
0.479498177766799927 0.654901981353759766 0.567079842090606689
0.479498177766799927 0.639215707778930664 0.586809217929840088
0.479498177766799927 0.623529434204101562 0.586809217929840088
0.479498177766799927 0.60000002384185791 0.618376195430755615
0.479498177766799927 0.596078455448150635 0.618376195430755615
0.479498177766799927 0.580392181873321533 0.630213797092437744
0.479498177766799927 0.533333361148834229 0.634159684181213379
0.479498177766799927 0.529411792755126953 0.630213797092437744
0.479498177766799927 0.498039215803146362 0.626267969608306885
0.479498177766799927 0.470588237047195435 0.606538593769073486
0.479498177766799927 0.443137258291244507 0.610484480857849121
0.479498177766799927 0.443137258291244507 0.606538593769073486
0.479498177766799927 0.415686279535293579 0.586809217929840088
0.479498177766799927 0.356862753629684448 0.571025729179382324
0.479498177766799927 0.352941185235977173 0.567079842090606689
0.479498177766799927 0.250980406999588013 0.559188127517700195
0.479498177766799927 0.227450981736183167 0.567079842090606689
0.479498177766799927 0.231372550129890442 0.563133955001831055
0.479498177766799927 0.231372550129890442 0.559188127517700195
0.479498177766799927 0.239215686917304993 0.559188127517700195
0.479498177766799927 0.243137255311012268 0.555242240428924561
0.479498177766799927 0.227450981736183167 0.531566977500915527
0.479498177766799927 0.227450981736183167 0.523675262928009033
0.479498177766799927 0.219607844948768616 0.515783488750457764
0.479498177766799927 0.203921571373939514 0.397407293319702148
0.479498177766799927 0.200000002980232239 0.393461406230926514
0.479498177766799927 0.196078434586524963 0.393461406230926514
0.479498177766799927 0.192156866192817688 0.357948571443557739
0.479498177766799927 0.266666680574417114 0.373732060194015503
0.479498177766799927 0.27058824896812439 0.369786173105239868
0.479498177766799927 0.368627458810806274 0.354002684354782104
0.479498177766799927 0.988235294818878174 0.440811902284622192
0.479498177766799927 0.988235294818878174 0.464487135410308838
0.479498177766799927 0.980392158031463623 0.464487135410308838
0.479498177766799927 0.980392158031463623 0.425028413534164429
0.479498177766799927 0.980392158031463623 0.409244924783706665
0.479498177766799927 0.984313726425170898 0.40529903769493103
0.5 0.0823529437184333801 0.294814586639404297
0.5 0.0862745121121406555 0.298760473728179932
0.5 0.0941176488995552063 0.298760473728179932
0.5 0.117647059261798859 0.318489819765090942
0.5 0.141176477074623108 0.314543962478637695
0.5 0.145098045468330383 0.369786173105239868
0.5 0.145098045468330383 0.40529903769493103
0.5 0.145098045468330383 0.440811902284622192
0.5 0.145098045468330383 0.476324766874313354
0.5 0.145098045468330383 0.511837601661682129
0.5 0.145098045468330383 0.547350466251373291
0.5 0.145098045468330383 0.582863330841064453
0.5 0.149019613862037659 0.657834947109222412
0.5 0.145098045468330383 0.689401924610137939
0.5 0.137254908680915833 0.689401924610137939
0.5 0.129411771893501282 0.68151015043258667
0.5 0.121568627655506134 0.68151015043258667
0.5 0.0901960805058479309 0.705185413360595703
0.5 0.0588235296308994293 0.701239526271820068
0.5 0.0431372560560703278 0.68151015043258667
0.5 0.0392156876623630524 0.657834947109222412
0.5 0.0470588244497776031 0.649943172931671143
0.5 0.0549019612371921539 0.649943172931671143
0.5 0.0588235296308994293 0.645997285842895508
0.5 0.0588235296308994293 0.606538593769073486
0.5 0.0588235296308994293 0.571025729179382324
0.5 0.0549019612371921539 0.519729375839233398
0.5 0.0588235296308994293 0.515783488750457764
0.5 0.0549019612371921539 0.456595391035079956
0.5 0.0549019612371921539 0.421082526445388794
0.5 0.0549019612371921539 0.385569661855697632
0.5 0.0549019612371921539 0.361894428730010986
0.5 0.0392156876623630524 0.350056827068328857
0.5 0.0156862754374742508 0.346110939979553223
0.5 0.0078431377187371254 0.322435706853866577
0.5 0.0117647061124444008 0.318489819765090942
0.5 0.0117647061124444008 0.306652218103408813
0.5 0.0235294122248888016 0.314543962478637695
0.5 0.0392156876623630524 0.314543962478637695
0.5 0.0588235296308994293 0.298760473728179932
0.5 0.211764708161354065 0.346110939979553223
0.5 0.211764708161354065 0.350056827068328857
0.5 0.227450981736183167 0.369786173105239868
0.5 0.274509817361831665 0.373732060194015503
0.5 0.27843138575553894 0.369786173105239868
0.5 0.384313732385635376 0.354002684354782104
0.5 0.388235300779342651 0.350056827068328857
0.5 0.439215689897537231 0.346110939979553223
0.5 0.443137258291244507 0.350056827068328857
0.5 0.525490224361419678 0.361894428730010986
0.5 0.545098066329956055 0.37767791748046875
0.5 0.584313750267028809 0.37767791748046875
0.5 0.666666686534881592 0.385569661855697632
0.5 0.760784327983856201 0.373732060194015503
0.5 0.784313738346099854 0.37767791748046875
0.5 0.800000011920928955 0.397407293319702148
0.5 0.800000011920928955 0.417136669158935547
0.5 0.84705883264541626 0.480270624160766602
0.5 0.850980401039123535 0.539458751678466797
0.5 0.84705883264541626 0.555242240428924561
0.5 0.835294127464294434 0.571025729179382324
0.5 0.827450990676879883 0.574971616268157959
0.5 0.772549033164978027 0.582863330841064453
0.5 0.764705896377563477 0.578917443752288818
0.5 0.760784327983856201 0.574971616268157959
0.5 0.749019622802734375 0.582863330841064453
0.5 0.729411780834197998 0.586809217929840088
0.5 0.725490212440490723 0.582863330841064453
0.5 0.717647075653076172 0.582863330841064453
0.5 0.705882370471954346 0.571025729179382324
0.5 0.705882370471954346 0.559188127517700195
0.5 0.70196080207824707 0.555242240428924561
0.5 0.705882370471954346 0.551296353340148926
0.5 0.705882370471954346 0.539458751678466797
0.5 0.698039233684539795 0.531566977500915527
0.5 0.670588254928588867 0.551296353340148926
0.5 0.670588254928588867 0.555242240428924561
0.5 0.658823549747467041 0.559188127517700195
0.5 0.639215707778930664 0.574971616268157959
0.5 0.631372570991516113 0.574971616268157959
0.5 0.60000002384185791 0.62232208251953125
0.5 0.596078455448150635 0.630213797092437744
0.5 0.596078455448150635 0.634159684181213379
0.5 0.556862771511077881 0.634159684181213379
0.5 0.517647087574005127 0.638105571269989014
0.5 0.513725519180297852 0.634159684181213379
0.5 0.486274510622024536 0.626267969608306885
0.5 0.470588237047195435 0.61443030834197998
0.5 0.443137258291244507 0.618376195430755615
0.5 0.439215689897537231 0.61443030834197998
0.5 0.439215689897537231 0.606538593769073486
0.5 0.400000005960464478 0.582863330841064453
0.5 0.396078437566757202 0.582863330841064453
0.5 0.37254902720451355 0.567079842090606689
0.5 0.282352954149246216 0.555242240428924561
0.5 0.243137255311012268 0.563133955001831055
0.5 0.231372550129890442 0.555242240428924561
0.5 0.219607844948768616 0.555242240428924561
0.5 0.21568627655506134 0.551296353340148926
0.5 0.21568627655506134 0.511837601661682129
0.5 0.211764708161354065 0.484216511249542236
0.5 0.192156866192817688 0.460541278123855591
0.5 0.188235297799110413 0.401353180408477783
0.5 0.188235297799110413 0.365840315818786621
0.5 0.184313729405403137 0.361894428730010986
0.5 0.188235297799110413 0.357948571443557739
0.5 0.184313729405403137 0.354002684354782104
0.5 0.184313729405403137 0.350056827068328857
0.5 0.188235297799110413 0.346110939979553223
0.520501852035522461 0.0980392172932624817 0.302706331014633179
0.520501852035522461 0.117647059261798859 0.322435706853866577
0.520501852035522461 0.141176477074623108 0.314543962478637695
0.520501852035522461 0.145098045468330383 0.369786173105239868
0.520501852035522461 0.145098045468330383 0.40529903769493103
0.520501852035522461 0.145098045468330383 0.440811902284622192
0.520501852035522461 0.145098045468330383 0.476324766874313354
0.520501852035522461 0.145098045468330383 0.511837601661682129
0.520501852035522461 0.145098045468330383 0.547350466251373291
0.520501852035522461 0.145098045468330383 0.582863330841064453
0.520501852035522461 0.149019613862037659 0.653889060020446777
0.520501852035522461 0.145098045468330383 0.685456037521362305
0.520501852035522461 0.141176477074623108 0.68151015043258667
0.520501852035522461 0.117647059261798859 0.68151015043258667
0.520501852035522461 0.0901960805058479309 0.705185413360595703
0.520501852035522461 0.0549019612371921539 0.697293639183044434
0.520501852035522461 0.0431372560560703278 0.677564322948455811
0.520501852035522461 0.0392156876623630524 0.657834947109222412
0.520501852035522461 0.0431372560560703278 0.653889060020446777
0.520501852035522461 0.0431372560560703278 0.649943172931671143
0.520501852035522461 0.0509803928434848785 0.649943172931671143
0.520501852035522461 0.0588235296308994293 0.642051458358764648
0.520501852035522461 0.0588235296308994293 0.602592706680297852
0.520501852035522461 0.0588235296308994293 0.567079842090606689
0.520501852035522461 0.0549019612371921539 0.496054112911224365
0.520501852035522461 0.0549019612371921539 0.460541278123855591
0.520501852035522461 0.0549019612371921539 0.425028413534164429
0.520501852035522461 0.0549019612371921539 0.389515548944473267
0.520501852035522461 0.0549019612371921539 0.361894428730010986
0.520501852035522461 0.0431372560560703278 0.354002684354782104
0.520501852035522461 0.0235294122248888016 0.350056827068328857
0.520501852035522461 0.0196078438311815262 0.346110939979553223
0.520501852035522461 0.0196078438311815262 0.314543962478637695
0.520501852035522461 0.0470588244497776031 0.310598075389862061
0.520501852035522461 0.0627451017498970032 0.298760473728179932
0.520501852035522461 0.223529413342475891 0.350056827068328857
0.520501852035522461 0.231372550129890442 0.357948571443557739
0.520501852035522461 0.298039227724075317 0.365840315818786621
0.520501852035522461 0.301960796117782593 0.361894428730010986
0.520501852035522461 0.341176480054855347 0.357948571443557739
0.520501852035522461 0.345098048448562622 0.361894428730010986
0.520501852035522461 0.349019616842269897 0.357948571443557739
0.520501852035522461 0.458823531866073608 0.350056827068328857
0.520501852035522461 0.537254929542541504 0.365840315818786621
0.520501852035522461 0.545098066329956055 0.373732060194015503
0.520501852035522461 0.666666686534881592 0.381623804569244385
0.520501852035522461 0.729411780834197998 0.373732060194015503
0.520501852035522461 0.733333349227905273 0.369786173105239868
0.520501852035522461 0.737254917621612549 0.373732060194015503
0.520501852035522461 0.776470601558685303 0.37767791748046875
0.520501852035522461 0.788235306739807129 0.393461406230926514
0.520501852035522461 0.788235306739807129 0.409244924783706665
0.520501852035522461 0.800000011920928955 0.421082526445388794
0.520501852035522461 0.831372559070587158 0.428974270820617676
0.520501852035522461 0.854901969432830811 0.460541278123855591
0.520501852035522461 0.870588243007659912 0.535512864589691162
0.520501852035522461 0.866666674613952637 0.539458751678466797
0.520501852035522461 0.862745106220245361 0.559188127517700195
0.520501852035522461 0.843137264251708984 0.578917443752288818
0.520501852035522461 0.80392158031463623 0.586809217929840088
0.520501852035522461 0.79607844352722168 0.594700932502746582
0.520501852035522461 0.7450980544090271 0.582863330841064453
0.520501852035522461 0.741176486015319824 0.586809217929840088
0.520501852035522461 0.717647075653076172 0.586809217929840088
0.520501852035522461 0.70196080207824707 0.571025729179382324
0.520501852035522461 0.698039233684539795 0.543404579162597656
0.520501852035522461 0.69411766529083252 0.539458751678466797
0.520501852035522461 0.686274528503417969 0.539458751678466797
0.520501852035522461 0.639215707778930664 0.574971616268157959
0.520501852035522461 0.631372570991516113 0.574971616268157959
0.520501852035522461 0.619607865810394287 0.590755105018615723
0.520501852035522461 0.615686297416687012 0.606538593769073486
0.520501852035522461 0.603921592235565186 0.618376195430755615
0.520501852035522461 0.603921592235565186 0.642051458358764648
0.520501852035522461 0.556862771511077881 0.645997285842895508
0.520501852035522461 0.552941203117370605 0.642051458358764648
0.520501852035522461 0.486274510622024536 0.630213797092437744
0.520501852035522461 0.470588237047195435 0.618376195430755615
0.520501852035522461 0.439215689897537231 0.618376195430755615
0.520501852035522461 0.427450984716415405 0.598646819591522217
0.520501852035522461 0.42352941632270813 0.598646819591522217
0.520501852035522461 0.364705890417098999 0.555242240428924561
0.520501852035522461 0.305882364511489868 0.547350466251373291
0.520501852035522461 0.301960796117782593 0.551296353340148926
0.520501852035522461 0.301960796117782593 0.555242240428924561
0.520501852035522461 0.290196090936660767 0.555242240428924561
0.520501852035522461 0.282352954149246216 0.563133955001831055
0.520501852035522461 0.282352954149246216 0.567079842090606689
0.520501852035522461 0.258823543787002563 0.567079842090606689
0.520501852035522461 0.258823543787002563 0.559188127517700195
0.520501852035522461 0.254901975393295288 0.555242240428924561
0.520501852035522461 0.219607844948768616 0.547350466251373291
0.520501852035522461 0.21568627655506134 0.543404579162597656
0.520501852035522461 0.21568627655506134 0.503945887088775635
0.520501852035522461 0.200000002980232239 0.444757759571075439
0.520501852035522461 0.196078434586524963 0.436866015195846558
0.520501852035522461 0.188235297799110413 0.428974270820617676
0.520501852035522461 0.184313729405403137 0.428974270820617676
0.520501852035522461 0.180392161011695862 0.413190782070159912
0.520501852035522461 0.184313729405403137 0.409244924783706665
0.520501852035522461 0.188235297799110413 0.381623804569244385
0.520501852035522461 0.196078434586524963 0.373732060194015503
0.520501852035522461 0.196078434586524963 0.346110939979553223
0.520501852035522461 0.988235294818878174 0.40529903769493103
0.520501852035522461 0.992156863212585449 0.409244924783706665
0.520501852035522461 1 0.456595391035079956
0.520501852035522461 0.996078431606292725 0.460541278123855591
0.520501852035522461 0.996078431606292725 0.468433022499084473
0.520501852035522461 0.988235294818878174 0.476324766874313354
0.520501852035522461 0.94901961088180542 0.476324766874313354
0.520501852035522461 0.941176474094390869 0.468433022499084473
0.520501852035522461 0.937254905700683594 0.425028413534164429
0.520501852035522461 0.941176474094390869 0.421082526445388794
0.520501852035522461 0.941176474094390869 0.417136669158935547
0.520501852035522461 0.945098042488098145 0.417136669158935547
0.520501852035522461 0.960784316062927246 0.40529903769493103
0.541003644466400146 0.0901960805058479309 0.302706331014633179
0.541003644466400146 0.117647059261798859 0.322435706853866577
0.541003644466400146 0.141176477074623108 0.318489819765090942
0.541003644466400146 0.145098045468330383 0.373732060194015503
0.541003644466400146 0.145098045468330383 0.401353180408477783
0.541003644466400146 0.156862750649452209 0.409244924783706665
0.541003644466400146 0.184313729405403137 0.409244924783706665
0.541003644466400146 0.200000002980232239 0.389515548944473267
0.541003644466400146 0.196078434586524963 0.350056827068328857
0.541003644466400146 0.286274522542953491 0.365840315818786621
0.541003644466400146 0.400000005960464478 0.354002684354782104
0.541003644466400146 0.435294121503829956 0.354002684354782104
0.541003644466400146 0.470588237047195435 0.354002684354782104
0.541003644466400146 0.541176497936248779 0.369786173105239868
0.541003644466400146 0.545098066329956055 0.373732060194015503
0.541003644466400146 0.584313750267028809 0.373732060194015503
0.541003644466400146 0.654901981353759766 0.381623804569244385
0.541003644466400146 0.658823549747467041 0.37767791748046875
0.541003644466400146 0.75294119119644165 0.369786173105239868
0.541003644466400146 0.756862759590148926 0.373732060194015503
0.541003644466400146 0.768627464771270752 0.373732060194015503
0.541003644466400146 0.780392169952392578 0.385569661855697632
0.541003644466400146 0.780392169952392578 0.40529903769493103
0.541003644466400146 0.79607844352722168 0.417136669158935547
0.541003644466400146 0.843137264251708984 0.428974270820617676
0.541003644466400146 0.870588243007659912 0.464487135410308838
0.541003644466400146 0.878431379795074463 0.464487135410308838
0.541003644466400146 0.882352948188781738 0.468433022499084473
0.541003644466400146 0.894117653369903564 0.460541278123855591
0.541003644466400146 0.913725495338439941 0.456595391035079956
0.541003644466400146 0.921568632125854492 0.448703646659851074
0.541003644466400146 0.929411768913269043 0.448703646659851074
0.541003644466400146 0.933333337306976318 0.444757759571075439
0.541003644466400146 0.937254905700683594 0.421082526445388794
0.541003644466400146 0.960784316062927246 0.40529903769493103
0.541003644466400146 0.972549021244049072 0.40529903769493103
0.541003644466400146 0.976470589637756348 0.401353180408477783
0.541003644466400146 0.980392158031463623 0.40529903769493103
0.541003644466400146 0.988235294818878174 0.40529903769493103
0.541003644466400146 0.992156863212585449 0.409244924783706665
0.541003644466400146 1 0.468433022499084473
0.541003644466400146 0.988235294818878174 0.480270624160766602
0.541003644466400146 0.929411768913269043 0.476324766874313354
0.541003644466400146 0.925490200519561768 0.47237887978553772
0.541003644466400146 0.921568632125854492 0.476324766874313354
0.541003644466400146 0.886274516582489014 0.480270624160766602
0.541003644466400146 0.878431379795074463 0.488162368535995483
0.541003644466400146 0.878431379795074463 0.527621090412139893
0.541003644466400146 0.870588243007659912 0.559188127517700195
0.541003644466400146 0.858823537826538086 0.574971616268157959
0.541003644466400146 0.75294119119644165 0.590755105018615723
0.541003644466400146 0.749019622802734375 0.586809217929840088
0.541003644466400146 0.7450980544090271 0.590755105018615723
0.541003644466400146 0.717647075653076172 0.586809217929840088
0.541003644466400146 0.70196080207824707 0.563133955001831055
0.541003644466400146 0.698039233684539795 0.547350466251373291
0.541003644466400146 0.686274528503417969 0.539458751678466797
0.541003644466400146 0.658823549747467041 0.567079842090606689
0.541003644466400146 0.65098041296005249 0.567079842090606689
0.541003644466400146 0.623529434204101562 0.586809217929840088
0.541003644466400146 0.615686297416687012 0.606538593769073486
0.541003644466400146 0.603921592235565186 0.618376195430755615
0.541003644466400146 0.60000002384185791 0.638105571269989014
0.541003644466400146 0.596078455448150635 0.642051458358764648
0.541003644466400146 0.580392181873321533 0.638105571269989014
0.541003644466400146 0.576470613479614258 0.642051458358764648
0.541003644466400146 0.541176497936248779 0.638105571269989014
0.541003644466400146 0.537254929542541504 0.642051458358764648
0.541003644466400146 0.490196079015731812 0.634159684181213379
0.541003644466400146 0.47450980544090271 0.62232208251953125
0.541003644466400146 0.439215689897537231 0.618376195430755615
0.541003644466400146 0.439215689897537231 0.610484480857849121
0.541003644466400146 0.376470595598220825 0.555242240428924561
0.541003644466400146 0.356862753629684448 0.555242240428924561
0.541003644466400146 0.352941185235977173 0.559188127517700195
0.541003644466400146 0.349019616842269897 0.578917443752288818
0.541003644466400146 0.345098048448562622 0.582863330841064453
0.541003644466400146 0.27843138575553894 0.567079842090606689
0.541003644466400146 0.27843138575553894 0.555242240428924561
0.541003644466400146 0.266666680574417114 0.547350466251373291
0.541003644466400146 0.21568627655506134 0.535512864589691162
0.541003644466400146 0.21568627655506134 0.531566977500915527
0.541003644466400146 0.231372550129890442 0.511837601661682129
0.541003644466400146 0.227450981736183167 0.496054112911224365
0.541003644466400146 0.20784313976764679 0.468433022499084473
0.541003644466400146 0.20784313976764679 0.452649533748626709
0.541003644466400146 0.203921571373939514 0.448703646659851074
0.541003644466400146 0.200000002980232239 0.448703646659851074
0.541003644466400146 0.200000002980232239 0.444757759571075439
0.541003644466400146 0.196078434586524963 0.440811902284622192
0.541003644466400146 0.152941182255744934 0.448703646659851074
0.541003644466400146 0.149019613862037659 0.452649533748626709
0.541003644466400146 0.149019613862037659 0.492108255624771118
0.541003644466400146 0.149019613862037659 0.527621090412139893
0.541003644466400146 0.149019613862037659 0.563133955001831055
0.541003644466400146 0.145098045468330383 0.578917443752288818
0.541003644466400146 0.149019613862037659 0.582863330841064453
0.541003644466400146 0.149019613862037659 0.62232208251953125
0.541003644466400146 0.149019613862037659 0.657834947109222412
0.541003644466400146 0.149019613862037659 0.673618435859680176
0.541003644466400146 0.145098045468330383 0.677564322948455811
0.541003644466400146 0.117647059261798859 0.677564322948455811
0.541003644466400146 0.0901960805058479309 0.701239526271820068
0.541003644466400146 0.0549019612371921539 0.693347811698913574
0.541003644466400146 0.0470588244497776031 0.685456037521362305
0.541003644466400146 0.0392156876623630524 0.649943172931671143
0.541003644466400146 0.0588235296308994293 0.634159684181213379
0.541003644466400146 0.0588235296308994293 0.594700932502746582
0.541003644466400146 0.0588235296308994293 0.559188127517700195
0.541003644466400146 0.0549019612371921539 0.488162368535995483
0.541003644466400146 0.0549019612371921539 0.452649533748626709
0.541003644466400146 0.0549019612371921539 0.417136669158935547
0.541003644466400146 0.0549019612371921539 0.381623804569244385
0.541003644466400146 0.0509803928434848785 0.365840315818786621
0.541003644466400146 0.0431372560560703278 0.357948571443557739
0.541003644466400146 0.027450980618596077 0.354002684354782104
0.541003644466400146 0.027450980618596077 0.346110939979553223
0.541003644466400146 0.0235294122248888016 0.342165052890777588
0.541003644466400146 0.027450980618596077 0.338219195604324341
0.541003644466400146 0.0313725508749485016 0.322435706853866577
0.541003644466400146 0.035294119268655777 0.322435706853866577
0.541003644466400146 0.0627451017498970032 0.302706331014633179
0.541003644466400146 0.070588238537311554 0.302706331014633179
0.541003644466400146 0.0745098069310188293 0.298760473728179932
0.561505496501922607 0.0941176488995552063 0.310598075389862061
0.561505496501922607 0.117647059261798859 0.330327451229095459
0.561505496501922607 0.141176477074623108 0.326381564140319824
0.561505496501922607 0.145098045468330383 0.381623804569244385
0.561505496501922607 0.145098045468330383 0.409244924783706665
0.561505496501922607 0.149019613862037659 0.413190782070159912
0.561505496501922607 0.203921571373939514 0.417136669158935547
0.561505496501922607 0.211764708161354065 0.413190782070159912
0.561505496501922607 0.21568627655506134 0.409244924783706665
0.561505496501922607 0.21568627655506134 0.381623804569244385
0.561505496501922607 0.200000002980232239 0.369786173105239868
0.561505496501922607 0.200000002980232239 0.361894428730010986
0.561505496501922607 0.20784313976764679 0.361894428730010986
0.561505496501922607 0.20784313976764679 0.369786173105239868
0.561505496501922607 0.211764708161354065 0.373732060194015503
0.561505496501922607 0.223529413342475891 0.373732060194015503
0.561505496501922607 0.227450981736183167 0.369786173105239868
0.561505496501922607 0.231372550129890442 0.373732060194015503
0.561505496501922607 0.254901975393295288 0.373732060194015503
0.561505496501922607 0.258823543787002563 0.37767791748046875
0.561505496501922607 0.262745112180709839 0.373732060194015503
0.561505496501922607 0.376470595598220825 0.357948571443557739
0.561505496501922607 0.380392163991928101 0.354002684354782104
0.561505496501922607 0.443137258291244507 0.350056827068328857
0.561505496501922607 0.447058826684951782 0.354002684354782104
0.561505496501922607 0.529411792755126953 0.369786173105239868
0.561505496501922607 0.533333361148834229 0.373732060194015503
0.561505496501922607 0.54901963472366333 0.37767791748046875
0.561505496501922607 0.552941203117370605 0.373732060194015503
0.561505496501922607 0.658823549747467041 0.381623804569244385
0.561505496501922607 0.749019622802734375 0.369786173105239868
0.561505496501922607 0.75294119119644165 0.373732060194015503
0.561505496501922607 0.776470601558685303 0.37767791748046875
0.561505496501922607 0.784313738346099854 0.389515548944473267
0.561505496501922607 0.784313738346099854 0.40529903769493103
0.561505496501922607 0.800000011920928955 0.417136669158935547
0.561505496501922607 0.843137264251708984 0.428974270820617676
0.561505496501922607 0.878431379795074463 0.480270624160766602
0.561505496501922607 0.878431379795074463 0.519729375839233398
0.561505496501922607 0.874509811401367188 0.555242240428924561
0.561505496501922607 0.862745106220245361 0.571025729179382324
0.561505496501922607 0.858823537826538086 0.571025729179382324
0.561505496501922607 0.850980401039123535 0.578917443752288818
0.561505496501922607 0.792156875133514404 0.582863330841064453
0.561505496501922607 0.756862759590148926 0.582863330841064453
0.561505496501922607 0.733333349227905273 0.578917443752288818
0.561505496501922607 0.709803938865661621 0.555242240428924561
0.561505496501922607 0.69411766529083252 0.551296353340148926
0.561505496501922607 0.686274528503417969 0.543404579162597656
0.561505496501922607 0.682352960109710693 0.543404579162597656
0.561505496501922607 0.635294139385223389 0.586809217929840088
0.561505496501922607 0.635294139385223389 0.590755105018615723
0.561505496501922607 0.619607865810394287 0.602592706680297852
