ply
format ascii 1.0
element vertex 762
property float x
property float y
property float z
end_header
0.541003644466400146 0.381623804569244385 0.0549019612371921539
0.541003644466400146 0.365840315818786621 0.0509803928434848785
0.541003644466400146 0.357948571443557739 0.0431372560560703278
0.541003644466400146 0.354002684354782104 0.027450980618596077
0.541003644466400146 0.346110939979553223 0.027450980618596077
0.541003644466400146 0.342165052890777588 0.0235294122248888016
0.541003644466400146 0.338219195604324341 0.027450980618596077
0.541003644466400146 0.322435706853866577 0.0313725508749485016
0.541003644466400146 0.322435706853866577 0.035294119268655777
0.541003644466400146 0.302706331014633179 0.0627451017498970032
0.541003644466400146 0.302706331014633179 0.070588238537311554
0.541003644466400146 0.298760473728179932 0.0745098069310188293
0.561505496501922607 0.310598075389862061 0.0941176488995552063
0.561505496501922607 0.330327451229095459 0.117647059261798859
0.561505496501922607 0.326381564140319824 0.141176477074623108
0.561505496501922607 0.381623804569244385 0.145098045468330383
0.561505496501922607 0.409244924783706665 0.145098045468330383
0.561505496501922607 0.413190782070159912 0.149019613862037659
0.561505496501922607 0.417136669158935547 0.203921571373939514
0.561505496501922607 0.413190782070159912 0.211764708161354065
0.561505496501922607 0.409244924783706665 0.21568627655506134
0.561505496501922607 0.381623804569244385 0.21568627655506134
0.561505496501922607 0.369786173105239868 0.200000002980232239
0.561505496501922607 0.361894428730010986 0.200000002980232239
0.561505496501922607 0.361894428730010986 0.20784313976764679
0.561505496501922607 0.369786173105239868 0.20784313976764679
0.561505496501922607 0.373732060194015503 0.211764708161354065
0.561505496501922607 0.373732060194015503 0.223529413342475891
0.561505496501922607 0.369786173105239868 0.227450981736183167
0.561505496501922607 0.373732060194015503 0.231372550129890442
0.561505496501922607 0.373732060194015503 0.254901975393295288
0.561505496501922607 0.37767791748046875 0.258823543787002563
0.561505496501922607 0.373732060194015503 0.262745112180709839
0.561505496501922607 0.357948571443557739 0.376470595598220825
0.561505496501922607 0.354002684354782104 0.380392163991928101
0.561505496501922607 0.350056827068328857 0.443137258291244507
0.561505496501922607 0.354002684354782104 0.447058826684951782
0.561505496501922607 0.369786173105239868 0.529411792755126953
0.561505496501922607 0.373732060194015503 0.533333361148834229
0.561505496501922607 0.37767791748046875 0.54901963472366333
0.561505496501922607 0.373732060194015503 0.552941203117370605
0.561505496501922607 0.381623804569244385 0.658823549747467041
0.561505496501922607 0.369786173105239868 0.749019622802734375
0.561505496501922607 0.373732060194015503 0.75294119119644165
0.561505496501922607 0.37767791748046875 0.776470601558685303
0.561505496501922607 0.389515548944473267 0.784313738346099854
0.561505496501922607 0.40529903769493103 0.784313738346099854
0.561505496501922607 0.417136669158935547 0.800000011920928955
0.561505496501922607 0.428974270820617676 0.843137264251708984
0.561505496501922607 0.480270624160766602 0.878431379795074463
0.561505496501922607 0.519729375839233398 0.878431379795074463
0.561505496501922607 0.555242240428924561 0.874509811401367188
0.561505496501922607 0.571025729179382324 0.862745106220245361
0.561505496501922607 0.571025729179382324 0.858823537826538086
0.561505496501922607 0.578917443752288818 0.850980401039123535
0.561505496501922607 0.582863330841064453 0.792156875133514404
0.561505496501922607 0.582863330841064453 0.756862759590148926
0.561505496501922607 0.578917443752288818 0.733333349227905273
0.561505496501922607 0.555242240428924561 0.709803938865661621
0.561505496501922607 0.551296353340148926 0.69411766529083252
0.561505496501922607 0.543404579162597656 0.686274528503417969
0.561505496501922607 0.543404579162597656 0.682352960109710693
0.561505496501922607 0.586809217929840088 0.635294139385223389
0.561505496501922607 0.590755105018615723 0.635294139385223389
0.561505496501922607 0.602592706680297852 0.619607865810394287
0.561505496501922607 0.606538593769073486 0.619607865810394287
0.561505496501922607 0.61443030834197998 0.611764729022979736
0.561505496501922607 0.618376195430755615 0.611764729022979736
0.561505496501922607 0.618376195430755615 0.607843160629272461
0.561505496501922607 0.626267969608306885 0.60000002384185791
0.561505496501922607 0.638105571269989014 0.505882382392883301
0.561505496501922607 0.630213797092437744 0.494117647409439087
0.561505496501922607 0.630213797092437744 0.486274510622024536
0.561505496501922607 0.618376195430755615 0.470588237047195435
0.561505496501922607 0.618376195430755615 0.443137258291244507
0.561505496501922607 0.61443030834197998 0.443137258291244507
0.561505496501922607 0.610484480857849121 0.439215689897537231
0.561505496501922607 0.610484480857849121 0.435294121503829956
0.561505496501922607 0.598646819591522217 0.431372553110122681
0.561505496501922607 0.559188127517700195 0.376470595598220825
0.561505496501922607 0.543404579162597656 0.305882364511489868
0.561505496501922607 0.547350466251373291 0.301960796117782593
0.561505496501922607 0.551296353340148926 0.301960796117782593
0.561505496501922607 0.543404579162597656 0.27843138575553894
0.561505496501922607 0.547350466251373291 0.274509817361831665
0.561505496501922607 0.555242240428924561 0.282352954149246216
0.561505496501922607 0.559188127517700195 0.27843138575553894
0.561505496501922607 0.555242240428924561 0.27843138575553894
0.561505496501922607 0.535512864589691162 0.250980406999588013
0.561505496501922607 0.535512864589691162 0.247058823704719543
0.561505496501922607 0.523675262928009033 0.243137255311012268
0.561505496501922607 0.515783488750457764 0.250980406999588013
0.561505496501922607 0.503945887088775635 0.247058823704719543
0.561505496501922607 0.496054112911224365 0.239215686917304993
0.561505496501922607 0.488162368535995483 0.239215686917304993
0.561505496501922607 0.468433022499084473 0.211764708161354065
0.561505496501922607 0.476324766874313354 0.152941182255744934
0.561505496501922607 0.480270624160766602 0.149019613862037659
0.561505496501922607 0.519729375839233398 0.149019613862037659
0.561505496501922607 0.555242240428924561 0.149019613862037659
0.561505496501922607 0.578917443752288818 0.145098045468330383
0.561505496501922607 0.582863330841064453 0.149019613862037659
0.561505496501922607 0.62232208251953125 0.149019613862037659
0.561505496501922607 0.657834947109222412 0.149019613862037659
0.561505496501922607 0.673618435859680176 0.145098045468330383
0.561505496501922607 0.669672548770904541 0.117647059261798859
0.561505496501922607 0.689401924610137939 0.101960785686969757
0.561505496501922607 0.693347811698913574 0.0941176488995552063
0.561505496501922607 0.689401924610137939 0.0588235296308994293
0.561505496501922607 0.673618435859680176 0.0431372560560703278
0.561505496501922607 0.638105571269989014 0.035294119268655777
0.561505496501922607 0.638105571269989014 0.0431372560560703278
0.561505496501922607 0.618376195430755615 0.0588235296308994293
0.561505496501922607 0.578917443752288818 0.0588235296308994293
0.561505496501922607 0.543404579162597656 0.0588235296308994293
0.561505496501922607 0.484216511249542236 0.0549019612371921539
0.561505496501922607 0.448703646659851074 0.0549019612371921539
0.561505496501922607 0.413190782070159912 0.0549019612371921539
0.561505496501922607 0.37767791748046875 0.0549019612371921539
0.561505496501922607 0.361894428730010986 0.035294119268655777
0.561505496501922607 0.361894428730010986 0.0313725508749485016
0.561505496501922607 0.330327451229095459 0.035294119268655777
0.561505496501922607 0.306652218103408813 0.0666666701436042786
0.561505496501922607 0.409244924783706665 0.972549021244049072
0.561505496501922607 0.432920157909393311 0.988235294818878174
0.561505496501922607 0.456595391035079956 0.992156863212585449
0.561505496501922607 0.460541278123855591 0.988235294818878174
0.561505496501922607 0.468433022499084473 0.988235294818878174
0.561505496501922607 0.468433022499084473 0.984313726425170898
0.561505496501922607 0.476324766874313354 0.976470589637756348
0.561505496501922607 0.476324766874313354 0.952941179275512695
0.561505496501922607 0.468433022499084473 0.945098042488098145
0.561505496501922607 0.417136669158935547 0.952941179275512695
0.561505496501922607 0.409244924783706665 0.960784316062927246
0.561505496501922607 0.563133955001831055 0.309803932905197144
0.561505496501922607 0.571025729179382324 0.317647069692611694
0.561505496501922607 0.578917443752288818 0.360784322023391724
0.561505496501922607 0.586809217929840088 0.360784322023391724
0.561505496501922607 0.590755105018615723 0.364705890417098999
0.561505496501922607 0.590755105018615723 0.376470595598220825
0.561505496501922607 0.586809217929840088 0.380392163991928101
0.561505496501922607 0.594700932502746582 0.392156869173049927
0.561505496501922607 0.598646819591522217 0.392156869173049927
0.561505496501922607 0.602592706680297852 0.396078437566757202
0.561505496501922607 0.586809217929840088 0.329411774873733521
0.561505496501922607 0.574971616268157959 0.317647069692611694
0.561505496501922607 0.574971616268157959 0.301960796117782593
0.561505496501922607 0.567079842090606689 0.294117659330368042
0.561505496501922607 0.567079842090606689 0.290196090936660767
0.561505496501922607 0.559188127517700195 0.290196090936660767
0.582007348537445068 0.314543962478637695 0.0862745121121406555
0.582007348537445068 0.338219195604324341 0.113725490868091583
0.582007348537445068 0.334273308515548706 0.141176477074623108
0.582007348537445068 0.389515548944473267 0.145098045468330383
0.582007348537445068 0.425028413534164429 0.145098045468330383
0.582007348537445068 0.428974270820617676 0.149019613862037659
0.582007348537445068 0.440811902284622192 0.21568627655506134
0.582007348537445068 0.436866015195846558 0.223529413342475891
0.582007348537445068 0.428974270820617676 0.231372550129890442
0.582007348537445068 0.401353180408477783 0.227450981736183167
0.582007348537445068 0.385569661855697632 0.21568627655506134
0.582007348537445068 0.37767791748046875 0.21568627655506134
0.582007348537445068 0.369786173105239868 0.20784313976764679
0.582007348537445068 0.369786173105239868 0.200000002980232239
0.582007348537445068 0.361894428730010986 0.200000002980232239
0.582007348537445068 0.361894428730010986 0.203921571373939514
0.582007348537445068 0.385569661855697632 0.231372550129890442
0.582007348537445068 0.385569661855697632 0.254901975393295288
0.582007348537445068 0.389515548944473267 0.258823543787002563
0.582007348537445068 0.385569661855697632 0.262745112180709839
0.582007348537445068 0.369786173105239868 0.376470595598220825
0.582007348537445068 0.365840315818786621 0.380392163991928101
0.582007348537445068 0.357948571443557739 0.466666668653488159
0.582007348537445068 0.373732060194015503 0.533333361148834229
0.582007348537445068 0.37767791748046875 0.537254929542541504
0.582007348537445068 0.37767791748046875 0.576470613479614258
0.582007348537445068 0.389515548944473267 0.654901981353759766
0.582007348537445068 0.385569661855697632 0.658823549747467041
0.582007348537445068 0.369786173105239868 0.756862759590148926
0.582007348537445068 0.373732060194015503 0.760784327983856201
0.582007348537445068 0.37767791748046875 0.780392169952392578
0.582007348537445068 0.389515548944473267 0.792156875133514404
0.582007348537445068 0.413190782070159912 0.79607844352722168
0.582007348537445068 0.421082526445388794 0.807843148708343506
0.582007348537445068 0.428974270820617676 0.831372559070587158
0.582007348537445068 0.484216511249542236 0.866666674613952637
0.582007348537445068 0.527621090412139893 0.874509811401367188
0.582007348537445068 0.531566977500915527 0.870588243007659912
0.582007348537445068 0.555242240428924561 0.866666674613952637
0.582007348537445068 0.578917443752288818 0.835294127464294434
0.582007348537445068 0.571025729179382324 0.788235306739807129
0.582007348537445068 0.523675262928009033 0.717647075653076172
0.582007348537445068 0.527621090412139893 0.713725507259368896
0.582007348537445068 0.527621090412139893 0.705882370471954346
0.582007348537445068 0.535512864589691162 0.698039233684539795
0.582007348537445068 0.539458751678466797 0.698039233684539795
0.582007348537445068 0.543404579162597656 0.670588254928588867
0.582007348537445068 0.578917443752288818 0.639215707778930664
0.582007348537445068 0.582863330841064453 0.639215707778930664
0.582007348537445068 0.590755105018615723 0.615686297416687012
0.582007348537445068 0.626267969608306885 0.576470613479614258
0.582007348537445068 0.634159684181213379 0.525490224361419678
0.582007348537445068 0.630213797092437744 0.521568655967712402
0.582007348537445068 0.62232208251953125 0.486274510622024536
0.582007348537445068 0.610484480857849121 0.47450980544090271
0.582007348537445068 0.610484480857849121 0.447058826684951782
0.582007348537445068 0.606538593769073486 0.443137258291244507
0.582007348537445068 0.590755105018615723 0.439215689897537231
0.582007348537445068 0.551296353340148926 0.384313732385635376
0.582007348537445068 0.535512864589691162 0.317647069692611694
0.582007348537445068 0.531566977500915527 0.313725501298904419
0.582007348537445068 0.523675262928009033 0.258823543787002563
0.582007348537445068 0.519729375839233398 0.258823543787002563
0.582007348537445068 0.519729375839233398 0.266666680574417114
0.582007348537445068 0.511837601661682129 0.274509817361831665
0.582007348537445068 0.50789177417755127 0.274509817361831665
0.582007348537445068 0.480270624160766602 0.239215686917304993
0.582007348537445068 0.476324766874313354 0.20784313976764679
0.582007348537445068 0.480270624160766602 0.203921571373939514
0.582007348537445068 0.480270624160766602 0.188235297799110413
0.582007348537445068 0.492108255624771118 0.180392161011695862
0.582007348537445068 0.492108255624771118 0.176470592617988586
0.582007348537445068 0.515783488750457764 0.149019613862037659
0.582007348537445068 0.555242240428924561 0.149019613862037659
0.582007348537445068 0.578917443752288818 0.145098045468330383
0.582007348537445068 0.582863330841064453 0.149019613862037659
0.582007348537445068 0.62232208251953125 0.149019613862037659
0.582007348537445068 0.665726661682128906 0.145098045468330383
0.582007348537445068 0.665726661682128906 0.121568627655506134
0.582007348537445068 0.661780834197998047 0.117647059261798859
0.582007348537445068 0.68151015043258667 0.101960785686969757
0.582007348537445068 0.685456037521362305 0.0941176488995552063
0.582007348537445068 0.68151015043258667 0.0588235296308994293
0.582007348537445068 0.673618435859680176 0.0509803928434848785
0.582007348537445068 0.673618435859680176 0.0470588244497776031
0.582007348537445068 0.669672548770904541 0.0470588244497776031
0.582007348537445068 0.653889060020446777 0.035294119268655777
0.582007348537445068 0.630213797092437744 0.0313725508749485016
0.582007348537445068 0.626267969608306885 0.035294119268655777
0.582007348537445068 0.626267969608306885 0.0431372560560703278
0.582007348537445068 0.606538593769073486 0.0588235296308994293
0.582007348537445068 0.567079842090606689 0.0588235296308994293
0.582007348537445068 0.480270624160766602 0.0549019612371921539
0.582007348537445068 0.444757759571075439 0.0549019612371921539
0.582007348537445068 0.409244924783706665 0.0549019612371921539
0.582007348537445068 0.389515548944473267 0.0549019612371921539
0.582007348537445068 0.37767791748046875 0.0392156876623630524
0.582007348537445068 0.37767791748046875 0.035294119268655777
0.582007348537445068 0.330327451229095459 0.0431372560560703278
0.582007348537445068 0.314543962478637695 0.0666666701436042786
0.582007348537445068 0.409244924783706665 0.988235294818878174
0.582007348537445068 0.417136669158935547 0.980392158031463623
0.582007348537445068 0.47237887978553772 0.976470589637756348
0.582007348537445068 0.468433022499084473 0.972549021244049072
0.582007348537445068 0.428974270820617676 0.972549021244049072
0.582007348537445068 0.417136669158935547 0.972549021244049072
0.582007348537445068 0.40529903769493103 0.984313726425170898
0.602509140968322754 0.326381564140319824 0.0901960805058479309
0.602509140968322754 0.354002684354782104 0.117647059261798859
0.602509140968322754 0.346110939979553223 0.129411771893501282
0.602509140968322754 0.346110939979553223 0.141176477074623108
0.602509140968322754 0.40529903769493103 0.145098045468330383
0.602509140968322754 0.440811902284622192 0.145098045468330383
0.602509140968322754 0.444757759571075439 0.145098045468330383
0.602509140968322754 0.452649533748626709 0.156862750649452209
0.602509140968322754 0.456595391035079956 0.172549024224281311
0.602509140968322754 0.468433022499084473 0.184313729405403137
0.602509140968322754 0.496054112911224365 0.188235297799110413
0.602509140968322754 0.503945887088775635 0.184313729405403137
0.602509140968322754 0.523675262928009033 0.168627455830574036
0.602509140968322754 0.527621090412139893 0.156862750649452209
0.602509140968322754 0.535512864589691162 0.149019613862037659
0.602509140968322754 0.578917443752288818 0.145098045468330383
0.602509140968322754 0.582863330841064453 0.149019613862037659
0.602509140968322754 0.62232208251953125 0.149019613862037659
0.602509140968322754 0.657834947109222412 0.145098045468330383
0.602509140968322754 0.657834947109222412 0.137254908680915833
0.602509140968322754 0.649943172931671143 0.129411771893501282
0.602509140968322754 0.649943172931671143 0.117647059261798859
0.602509140968322754 0.669672548770904541 0.101960785686969757
0.602509140968322754 0.669672548770904541 0.0980392172932624817
0.602509140968322754 0.677564322948455811 0.0901960805058479309
0.602509140968322754 0.669672548770904541 0.0549019612371921539
0.602509140968322754 0.649943172931671143 0.0392156876623630524
0.602509140968322754 0.649943172931671143 0.035294119268655777
0.602509140968322754 0.638105571269989014 0.027450980618596077
0.602509140968322754 0.62232208251953125 0.0235294122248888016
0.602509140968322754 0.61443030834197998 0.027450980618596077
0.602509140968322754 0.610484480857849121 0.0313725508749485016
0.602509140968322754 0.610484480857849121 0.0392156876623630524
0.602509140968322754 0.598646819591522217 0.0549019612371921539
0.602509140968322754 0.531566977500915527 0.0588235296308994293
0.602509140968322754 0.527621090412139893 0.0549019612371921539
0.602509140968322754 0.488162368535995483 0.0549019612371921539
0.602509140968322754 0.452649533748626709 0.0549019612371921539
0.602509140968322754 0.417136669158935547 0.0549019612371921539
0.602509140968322754 0.409244924783706665 0.0549019612371921539
0.602509140968322754 0.393461406230926514 0.0392156876623630524
0.602509140968322754 0.393461406230926514 0.035294119268655777
0.602509140968322754 0.338219195604324341 0.0470588244497776031
0.602509140968322754 0.326381564140319824 0.0627451017498970032
0.602509140968322754 0.365840315818786621 0.20784313976764679
0.602509140968322754 0.37767791748046875 0.223529413342475891
0.602509140968322754 0.381623804569244385 0.223529413342475891
0.602509140968322754 0.389515548944473267 0.231372550129890442
0.602509140968322754 0.393461406230926514 0.290196090936660767
0.602509140968322754 0.389515548944473267 0.294117659330368042
0.602509140968322754 0.389515548944473267 0.333333343267440796
0.602509140968322754 0.373732060194015503 0.450980395078659058
0.602509140968322754 0.369786173105239868 0.454901963472366333
0.602509140968322754 0.385569661855697632 0.545098066329956055
0.602509140968322754 0.381623804569244385 0.54901963472366333
0.602509140968322754 0.393461406230926514 0.65098041296005249
0.602509140968322754 0.37767791748046875 0.737254917621612549
0.602509140968322754 0.373732060194015503 0.741176486015319824
0.602509140968322754 0.385569661855697632 0.80392158031463623
0.602509140968322754 0.417136669158935547 0.827450990676879883
0.602509140968322754 0.428974270820617676 0.827450990676879883
0.602509140968322754 0.440811902284622192 0.839215695858001709
0.602509140968322754 0.5 0.854901969432830811
0.602509140968322754 0.503945887088775635 0.858823537826538086
0.602509140968322754 0.539458751678466797 0.854901969432830811
0.602509140968322754 0.555242240428924561 0.839215695858001709
0.602509140968322754 0.559188127517700195 0.815686285495758057
0.602509140968322754 0.555242240428924561 0.811764717102050781
0.602509140968322754 0.551296353340148926 0.79607844352722168
0.602509140968322754 0.511837601661682129 0.7450980544090271
0.602509140968322754 0.527621090412139893 0.670588254928588867
0.602509140968322754 0.539458751678466797 0.654901981353759766
0.602509140968322754 0.543404579162597656 0.654901981353759766
0.602509140968322754 0.555242240428924561 0.643137276172637939
0.602509140968322754 0.578917443752288818 0.635294139385223389
0.602509140968322754 0.586809217929840088 0.627451002597808838
0.602509140968322754 0.586809217929840088 0.603921592235565186
0.602509140968322754 0.606538593769073486 0.588235318660736084
0.602509140968322754 0.606538593769073486 0.584313750267028809
0.602509140968322754 0.618376195430755615 0.568627476692199707
0.602509140968322754 0.62232208251953125 0.517647087574005127
0.602509140968322754 0.618376195430755615 0.513725519180297852
0.602509140968322754 0.61443030834197998 0.494117647409439087
0.602509140968322754 0.598646819591522217 0.47450980544090271
0.602509140968322754 0.594700932502746582 0.447058826684951782
0.602509140968322754 0.582863330841064453 0.439215689897537231
0.602509140968322754 0.574971616268157959 0.439215689897537231
0.602509140968322754 0.551296353340148926 0.407843142747879028
0.602509140968322754 0.535512864589691162 0.349019616842269897
0.602509140968322754 0.531566977500915527 0.345098048448562622
0.602509140968322754 0.519729375839233398 0.27843138575553894
0.602509140968322754 0.515783488750457764 0.282352954149246216
0.602509140968322754 0.519729375839233398 0.333333343267440796
0.602509140968322754 0.515783488750457764 0.337254911661148071
0.602509140968322754 0.511837601661682129 0.337254911661148071
0.602509140968322754 0.503945887088775635 0.325490206480026245
0.602509140968322754 0.503945887088775635 0.309803932905197144
0.602509140968322754 0.50789177417755127 0.305882364511489868
0.602509140968322754 0.496054112911224365 0.298039227724075317
0.602509140968322754 0.492108255624771118 0.274509817361831665
0.602509140968322754 0.488162368535995483 0.274509817361831665
0.602509140968322754 0.47237887978553772 0.258823543787002563
0.602509140968322754 0.413190782070159912 0.243137255311012268
0.602509140968322754 0.381623804569244385 0.219607844948768616
0.602509140968322754 0.381623804569244385 0.21568627655506134
0.602509140968322754 0.37767791748046875 0.21568627655506134
0.602509140968322754 0.365840315818786621 0.203921571373939514
0.602509140968322754 0.361894428730010986 0.203921571373939514
0.602509140968322754 0.413190782070159912 0.996078431606292725
0.602509140968322754 0.464487135410308838 0.988235294818878174
0.602509140968322754 0.464487135410308838 0.980392158031463623
0.602509140968322754 0.425028413534164429 0.980392158031463623
0.602509140968322754 0.413190782070159912 0.984313726425170898
0.602509140968322754 0.409244924783706665 0.988235294818878174
0.623010993003845215 0.342165052890777588 0.0901960805058479309
0.623010993003845215 0.369786173105239868 0.117647059261798859
0.623010993003845215 0.365840315818786621 0.137254908680915833
0.623010993003845215 0.373732060194015503 0.145098045468330383
0.623010993003845215 0.413190782070159912 0.145098045468330383
0.623010993003845215 0.448703646659851074 0.145098045468330383
0.623010993003845215 0.464487135410308838 0.145098045468330383
0.623010993003845215 0.488162368535995483 0.176470592617988586
0.623010993003845215 0.496054112911224365 0.180392161011695862
0.623010993003845215 0.535512864589691162 0.176470592617988586
0.623010993003845215 0.555242240428924561 0.149019613862037659
0.623010993003845215 0.578917443752288818 0.145098045468330383
0.623010993003845215 0.582863330841064453 0.149019613862037659
0.623010993003845215 0.62232208251953125 0.149019613862037659
0.623010993003845215 0.638105571269989014 0.145098045468330383
0.623010993003845215 0.634159684181213379 0.117647059261798859
0.623010993003845215 0.661780834197998047 0.0941176488995552063
0.623010993003845215 0.665726661682128906 0.0784313753247261047
0.623010993003845215 0.661780834197998047 0.0745098069310188293
0.623010993003845215 0.657834947109222412 0.0588235296308994293
0.623010993003845215 0.642051458358764648 0.0431372560560703278
0.623010993003845215 0.642051458358764648 0.0313725508749485016
0.623010993003845215 0.626267969608306885 0.0196078438311815262
0.623010993003845215 0.598646819591522217 0.0156862754374742508
0.623010993003845215 0.571025729179382324 0.0549019612371921539
0.623010993003845215 0.531566977500915527 0.0549019612371921539
0.623010993003845215 0.496054112911224365 0.0549019612371921539
0.623010993003845215 0.460541278123855591 0.0549019612371921539
0.623010993003845215 0.436866015195846558 0.0549019612371921539
0.623010993003845215 0.421082526445388794 0.0431372560560703278
0.623010993003845215 0.421082526445388794 0.0392156876623630524
0.623010993003845215 0.417136669158935547 0.035294119268655777
0.623010993003845215 0.354002684354782104 0.0470588244497776031
0.623010993003845215 0.342165052890777588 0.0588235296308994293
0.623010993003845215 0.342165052890777588 0.0666666701436042786
0.623010993003845215 0.338219195604324341 0.070588238537311554
0.623010993003845215 0.373732060194015503 0.223529413342475891
0.623010993003845215 0.373732060194015503 0.231372550129890442
0.623010993003845215 0.393461406230926514 0.262745112180709839
0.623010993003845215 0.397407293319702148 0.301960796117782593
0.623010993003845215 0.393461406230926514 0.305882364511489868
0.623010993003845215 0.393461406230926514 0.345098048448562622
0.623010993003845215 0.389515548944473267 0.407843142747879028
0.623010993003845215 0.389515548944473267 0.443137258291244507
0.623010993003845215 0.389515548944473267 0.478431373834609985
0.623010993003845215 0.393461406230926514 0.537254929542541504
0.623010993003845215 0.389515548944473267 0.541176497936248779
0.623010993003845215 0.40529903769493103 0.603921592235565186
0.623010993003845215 0.409244924783706665 0.607843160629272461
0.623010993003845215 0.393461406230926514 0.69411766529083252
0.623010993003845215 0.389515548944473267 0.698039233684539795
0.623010993003845215 0.373732060194015503 0.79607844352722168
0.623010993003845215 0.37767791748046875 0.800000011920928955
0.623010993003845215 0.381623804569244385 0.835294127464294434
0.623010993003845215 0.401353180408477783 0.858823537826538086
0.623010993003845215 0.47237887978553772 0.84705883264541626
0.623010993003845215 0.47237887978553772 0.843137264251708984
0.623010993003845215 0.503945887088775635 0.823529422283172607
0.623010993003845215 0.50789177417755127 0.823529422283172607
0.623010993003845215 0.5 0.760784327983856201
0.623010993003845215 0.503945887088775635 0.756862759590148926
0.623010993003845215 0.519729375839233398 0.682352960109710693
0.623010993003845215 0.523675262928009033 0.678431391716003418
0.623010993003845215 0.519729375839233398 0.662745118141174316
0.623010993003845215 0.515783488750457764 0.658823549747467041
0.623010993003845215 0.519729375839233398 0.654901981353759766
0.623010993003845215 0.523675262928009033 0.631372570991516113
0.623010993003845215 0.535512864589691162 0.623529434204101562
0.623010993003845215 0.539458751678466797 0.611764729022979736
0.623010993003845215 0.578917443752288818 0.588235318660736084
0.623010993003845215 0.582863330841064453 0.588235318660736084
0.623010993003845215 0.598646819591522217 0.576470613479614258
0.623010993003845215 0.606538593769073486 0.54901963472366333
0.623010993003845215 0.610484480857849121 0.545098066329956055
0.623010993003845215 0.606538593769073486 0.541176497936248779
0.623010993003845215 0.598646819591522217 0.498039215803146362
0.623010993003845215 0.578917443752288818 0.470588237047195435
0.623010993003845215 0.582863330841064453 0.466666668653488159
0.623010993003845215 0.582863330841064453 0.454901963472366333
0.623010993003845215 0.578917443752288818 0.450980395078659058
0.623010993003845215 0.571025729179382324 0.450980395078659058
0.623010993003845215 0.555242240428924561 0.439215689897537231
0.623010993003845215 0.539458751678466797 0.392156869173049927
0.623010993003845215 0.535512864589691162 0.384313732385635376
0.623010993003845215 0.527621090412139893 0.376470595598220825
0.623010993003845215 0.527621090412139893 0.368627458810806274
0.623010993003845215 0.519729375839233398 0.368627458810806274
0.623010993003845215 0.515783488750457764 0.400000005960464478
0.623010993003845215 0.511837601661682129 0.403921574354171753
0.623010993003845215 0.503945887088775635 0.392156869173049927
0.623010993003845215 0.488162368535995483 0.333333343267440796
0.623010993003845215 0.484216511249542236 0.329411774873733521
0.623010993003845215 0.464487135410308838 0.27058824896812439
0.623010993003845215 0.452649533748626709 0.258823543787002563
0.623010993003845215 0.444757759571075439 0.258823543787002563
0.623010993003845215 0.385569661855697632 0.21568627655506134
0.623010993003845215 0.373732060194015503 0.21568627655506134
0.623010993003845215 0.369786173105239868 0.211764708161354065
0.623010993003845215 0.365840315818786621 0.21568627655506134
0.623010993003845215 0.417136669158935547 0.980392158031463623
0.623010993003845215 0.417136669158935547 0.976470589637756348
0.623010993003845215 0.409244924783706665 0.976470589637756348
0.623010993003845215 0.40529903769493103 0.980392158031463623
0.623010993003845215 0.464487135410308838 0.980392158031463623
0.623010993003845215 0.464487135410308838 0.972549021244049072
0.623010993003845215 0.452649533748626709 0.972549021244049072
0.623010993003845215 0.452649533748626709 0.976470589637756348
0.623010993003845215 0.448703646659851074 0.980392158031463623
0.643512845039367676 0.357948571443557739 0.0901960805058479309
0.643512845039367676 0.389515548944473267 0.117647059261798859
0.643512845039367676 0.385569661855697632 0.137254908680915833
0.643512845039367676 0.389515548944473267 0.141176477074623108
0.643512845039367676 0.389515548944473267 0.145098045468330383
0.643512845039367676 0.428974270820617676 0.145098045468330383
0.643512845039367676 0.464487135410308838 0.145098045468330383
0.643512845039367676 0.480270624160766602 0.145098045468330383
0.643512845039367676 0.5 0.168627455830574036
0.643512845039367676 0.50789177417755127 0.172549024224281311
0.643512845039367676 0.559188127517700195 0.16470588743686676
0.643512845039367676 0.567079842090606689 0.156862750649452209
0.643512845039367676 0.567079842090606689 0.149019613862037659
0.643512845039367676 0.571025729179382324 0.145098045468330383
0.643512845039367676 0.586809217929840088 0.149019613862037659
0.643512845039367676 0.590755105018615723 0.145098045468330383
0.643512845039367676 0.594700932502746582 0.149019613862037659
0.643512845039367676 0.61443030834197998 0.145098045468330383
0.643512845039367676 0.618376195430755615 0.141176477074623108
0.643512845039367676 0.61443030834197998 0.125490203499794006
0.643512845039367676 0.610484480857849121 0.121568627655506134
0.643512845039367676 0.630213797092437744 0.105882354080677032
0.643512845039367676 0.634159684181213379 0.105882354080677032
0.643512845039367676 0.634159684181213379 0.101960785686969757
0.643512845039367676 0.645997285842895508 0.0901960805058479309
0.643512845039367676 0.638105571269989014 0.0549019612371921539
0.643512845039367676 0.634159684181213379 0.0549019612371921539
0.643512845039367676 0.62232208251953125 0.0431372560560703278
0.643512845039367676 0.62232208251953125 0.0313725508749485016
0.643512845039367676 0.630213797092437744 0.0235294122248888016
0.643512845039367676 0.626267969608306885 0.0196078438311815262
0.643512845039367676 0.626267969608306885 0.0156862754374742508
0.643512845039367676 0.582863330841064453 0.0078431377187371254
0.643512845039367676 0.578917443752288818 0.0117647061124444008
0.643512845039367676 0.555242240428924561 0.0156862754374742508
0.643512845039367676 0.531566977500915527 0.0313725508749485016
0.643512845039367676 0.531566977500915527 0.035294119268655777
0.643512845039367676 0.519729375839233398 0.0470588244497776031
0.643512845039367676 0.484216511249542236 0.0470588244497776031
0.643512845039367676 0.47237887978553772 0.027450980618596077
0.643512845039367676 0.381623804569244385 0.0431372560560703278
0.643512845039367676 0.373732060194015503 0.0470588244497776031
0.643512845039367676 0.357948571443557739 0.0627451017498970032
0.643512845039367676 0.373732060194015503 0.800000011920928955
0.643512845039367676 0.37767791748046875 0.84705883264541626
0.643512845039367676 0.401353180408477783 0.866666674613952637
0.643512845039367676 0.40529903769493103 0.874509811401367188
0.643512845039367676 0.40529903769493103 0.878431379795074463
0.643512845039367676 0.425028413534164429 0.882352948188781738
0.643512845039367676 0.436866015195846558 0.874509811401367188
0.643512845039367676 0.468433022499084473 0.866666674613952637
0.643512845039367676 0.480270624160766602 0.854901969432830811
0.643512845039367676 0.496054112911224365 0.729411780834197998
0.643512845039367676 0.503945887088775635 0.647058844566345215
0.643512845039367676 0.5 0.643137276172637939
0.643512845039367676 0.5 0.635294139385223389
0.643512845039367676 0.492108255624771118 0.627451002597808838
0.643512845039367676 0.492108255624771118 0.607843160629272461
0.643512845039367676 0.503945887088775635 0.596078455448150635
0.643512845039367676 0.555242240428924561 0.580392181873321533
0.643512845039367676 0.563133955001831055 0.576470613479614258
0.643512845039367676 0.571025729179382324 0.568627476692199707
0.643512845039367676 0.574971616268157959 0.568627476692199707
0.643512845039367676 0.586809217929840088 0.541176497936248779
0.643512845039367676 0.582863330841064453 0.537254929542541504
0.643512845039367676 0.574971616268157959 0.501960813999176025
0.643512845039367676 0.559188127517700195 0.486274510622024536
0.643512845039367676 0.563133955001831055 0.466666668653488159
0.643512845039367676 0.559188127517700195 0.462745100259780884
0.643512845039367676 0.559188127517700195 0.454901963472366333
0.643512845039367676 0.527621090412139893 0.411764711141586304
0.643512845039367676 0.511837601661682129 0.415686279535293579
0.643512845039367676 0.50789177417755127 0.411764711141586304
0.643512845039367676 0.5 0.411764711141586304
0.643512845039367676 0.492108255624771118 0.403921574354171753
0.643512845039367676 0.488162368535995483 0.37254902720451355
0.643512845039367676 0.484216511249542236 0.37254902720451355
0.643512845039367676 0.480270624160766602 0.368627458810806274
0.643512845039367676 0.484216511249542236 0.364705890417098999
0.643512845039367676 0.480270624160766602 0.360784322023391724
0.643512845039367676 0.47237887978553772 0.305882364511489868
0.643512845039367676 0.480270624160766602 0.298039227724075317
0.643512845039367676 0.476324766874313354 0.294117659330368042
0.643512845039367676 0.468433022499084473 0.266666680574417114
0.643512845039367676 0.428974270820617676 0.243137255311012268
0.643512845039367676 0.425028413534164429 0.243137255311012268
0.643512845039367676 0.40529903769493103 0.227450981736183167
0.643512845039367676 0.40529903769493103 0.239215686917304993
0.643512845039367676 0.417136669158935547 0.239215686917304993
0.643512845039367676 0.421082526445388794 0.243137255311012268
0.643512845039367676 0.417136669158935547 0.258823543787002563
0.643512845039367676 0.444757759571075439 0.301960796117782593
0.643512845039367676 0.436866015195846558 0.333333343267440796
0.643512845039367676 0.413190782070159912 0.368627458810806274
0.643512845039367676 0.397407293319702148 0.470588237047195435
0.643512845039367676 0.401353180408477783 0.47450980544090271
0.643512845039367676 0.40529903769493103 0.521568655967712402
0.643512845039367676 0.401353180408477783 0.525490224361419678
0.643512845039367676 0.40529903769493103 0.560784339904785156
0.643512845039367676 0.421082526445388794 0.584313750267028809
0.643512845039367676 0.425028413534164429 0.584313750267028809
0.643512845039367676 0.436866015195846558 0.596078455448150635
0.643512845039367676 0.440811902284622192 0.623529434204101562
0.643512845039367676 0.40529903769493103 0.670588254928588867
0.643512845039367676 0.389515548944473267 0.725490212440490723
0.643512845039367676 0.385569661855697632 0.729411780834197998
0.643512845039367676 0.369786173105239868 0.792156875133514404
0.643512845039367676 0.393461406230926514 0.972549021244049072
0.643512845039367676 0.413190782070159912 0.976470589637756348
0.643512845039367676 0.421082526445388794 0.984313726425170898
0.643512845039367676 0.421082526445388794 0.988235294818878174
0.643512845039367676 0.432920157909393311 0.992156863212585449
0.643512845039367676 0.444757759571075439 0.984313726425170898
0.643512845039367676 0.448703646659851074 0.984313726425170898
0.643512845039367676 0.448703646659851074 0.980392158031463623
0.643512845039367676 0.464487135410308838 0.968627452850341797
0.643512845039367676 0.464487135410308838 0.960784316062927246
0.643512845039367676 0.40529903769493103 0.956862747669219971
0.643512845039367676 0.397407293319702148 0.964705884456634521
0.643512845039367676 0.393461406230926514 0.964705884456634521
0.664014637470245361 0.37767791748046875 0.788235306739807129
0.664014637470245361 0.381623804569244385 0.819607853889465332
0.664014637470245361 0.37767791748046875 0.823529422283172607
0.664014637470245361 0.37767791748046875 0.835294127464294434
0.664014637470245361 0.393461406230926514 0.854901969432830811
0.664014637470245361 0.401353180408477783 0.929411768913269043
0.664014637470245361 0.397407293319702148 0.937254905700683594
0.664014637470245361 0.389515548944473267 0.945098042488098145
0.664014637470245361 0.389515548944473267 0.968627452850341797
0.664014637470245361 0.40529903769493103 0.972549021244049072
0.664014637470245361 0.409244924783706665 0.968627452850341797
0.664014637470245361 0.425028413534164429 0.968627452850341797
0.664014637470245361 0.440811902284622192 0.988235294818878174
0.664014637470245361 0.448703646659851074 0.988235294818878174
0.664014637470245361 0.448703646659851074 0.976470589637756348
0.664014637470245361 0.456595391035079956 0.968627452850341797
0.664014637470245361 0.460541278123855591 0.968627452850341797
0.664014637470245361 0.464487135410308838 0.941176474094390869
0.664014637470245361 0.452649533748626709 0.933333337306976318
0.664014637470245361 0.468433022499084473 0.862745106220245361
0.664014637470245361 0.47237887978553772 0.854901969432830811
0.664014637470245361 0.476324766874313354 0.850980401039123535
0.664014637470245361 0.480270624160766602 0.850980401039123535
0.664014637470245361 0.496054112911224365 0.741176486015319824
0.664014637470245361 0.492108255624771118 0.737254917621612549
0.664014637470245361 0.496054112911224365 0.666666686534881592
0.664014637470245361 0.492108255624771118 0.662745118141174316
0.664014637470245361 0.488162368535995483 0.643137276172637939
0.664014637470245361 0.484216511249542236 0.639215707778930664
0.664014637470245361 0.47237887978553772 0.639215707778930664
0.664014637470245361 0.47237887978553772 0.643137276172637939
0.664014637470245361 0.460541278123855591 0.65098041296005249
0.664014637470245361 0.440811902284622192 0.65098041296005249
0.664014637470245361 0.428974270820617676 0.639215707778930664
0.664014637470245361 0.428974270820617676 0.635294139385223389
0.664014637470245361 0.417136669158935547 0.639215707778930664
0.664014637470245361 0.417136669158935547 0.643137276172637939
0.664014637470245361 0.393461406230926514 0.678431391716003418
0.664014637470245361 0.373732060194015503 0.780392169952392578
0.664014637470245361 0.381623804569244385 0.0901960805058479309
0.664014637470245361 0.421082526445388794 0.117647059261798859
0.664014637470245361 0.417136669158935547 0.129411771893501282
0.664014637470245361 0.409244924783706665 0.137254908680915833
0.664014637470245361 0.413190782070159912 0.137254908680915833
0.664014637470245361 0.421082526445388794 0.145098045468330383
0.664014637470245361 0.460541278123855591 0.145098045468330383
0.664014637470245361 0.496054112911224365 0.145098045468330383
0.664014637470245361 0.515783488750457764 0.160784319043159485
0.664014637470245361 0.535512864589691162 0.160784319043159485
0.664014637470245361 0.547350466251373291 0.149019613862037659
0.664014637470245361 0.590755105018615723 0.145098045468330383
0.664014637470245361 0.590755105018615723 0.133333340287208557
0.664014637470245361 0.586809217929840088 0.133333340287208557
0.664014637470245361 0.582863330841064453 0.129411771893501282
0.664014637470245361 0.582863330841064453 0.117647059261798859
0.664014637470245361 0.62232208251953125 0.0901960805058479309
0.664014637470245361 0.626267969608306885 0.0745098069310188293
0.664014637470245361 0.62232208251953125 0.0666666701436042786
0.664014637470245361 0.586809217929840088 0.0392156876623630524
0.664014637470245361 0.602592706680297852 0.0196078438311815262
0.664014637470245361 0.606538593769073486 0.0196078438311815262
0.664014637470245361 0.610484480857849121 0.0156862754374742508
0.664014637470245361 0.606538593769073486 0.0039215688593685627
0.664014637470245361 0.567079842090606689 0.0039215688593685627
0.664014637470245361 0.480270624160766602 0.0196078438311815262
0.664014637470245361 0.476324766874313354 0.0235294122248888016
0.664014637470245361 0.417136669158935547 0.0392156876623630524
0.664014637470245361 0.413190782070159912 0.0431372560560703278
0.664014637470245361 0.397407293319702148 0.0470588244497776031
0.664014637470245361 0.381623804569244385 0.0627451017498970032
0.664014637470245361 0.381623804569244385 0.070588238537311554
0.664014637470245361 0.37767791748046875 0.0745098069310188293
0.664014637470245361 0.40529903769493103 0.545098066329956055
0.664014637470245361 0.40529903769493103 0.576470613479614258
0.664014637470245361 0.413190782070159912 0.584313750267028809
0.664014637470245361 0.417136669158935547 0.584313750267028809
0.664014637470245361 0.421082526445388794 0.580392181873321533
0.664014637470245361 0.428974270820617676 0.545098066329956055
0.664014637470245361 0.436866015195846558 0.537254929542541504
0.664014637470245361 0.468433022499084473 0.560784339904785156
0.664014637470245361 0.468433022499084473 0.564705908298492432
0.664014637470245361 0.47237887978553772 0.564705908298492432
0.664014637470245361 0.480270624160766602 0.572549045085906982
0.664014637470245361 0.480270624160766602 0.580392181873321533
0.664014637470245361 0.523675262928009033 0.572549045085906982
0.664014637470245361 0.539458751678466797 0.560784339904785156
0.664014637470245361 0.543404579162597656 0.552941203117370605
0.664014637470245361 0.547350466251373291 0.529411792755126953
0.664014637470245361 0.539458751678466797 0.517647087574005127
0.664014637470245361 0.535512864589691162 0.498039215803146362
0.664014637470245361 0.539458751678466797 0.494117647409439087
0.664014637470245361 0.539458751678466797 0.458823531866073608
0.664014637470245361 0.531566977500915527 0.458823531866073608
0.664014637470245361 0.515783488750457764 0.439215689897537231
0.664014637470245361 0.515783488750457764 0.431372553110122681
0.664014637470245361 0.492108255624771118 0.411764711141586304
0.664014637470245361 0.464487135410308838 0.403921574354171753
0.664014637470245361 0.460541278123855591 0.407843142747879028
0.664014637470245361 0.452649533748626709 0.407843142747879028
0.664014637470245361 0.452649533748626709 0.411764711141586304
0.664014637470245361 0.436866015195846558 0.427450984716415405
0.664014637470245361 0.428974270820617676 0.458823531866073608
0.664014637470245361 0.425028413534164429 0.462745100259780884
0.664014637470245361 0.421082526445388794 0.462745100259780884
0.664014637470245361 0.40529903769493103 0.509803950786590576
0.664014637470245361 0.428974270820617676 0.243137255311012268
0.664014637470245361 0.428974270820617676 0.239215686917304993
0.664014637470245361 0.421082526445388794 0.239215686917304993
0.664014637470245361 0.436866015195846558 0.254901975393295288
0.664014637470245361 0.444757759571075439 0.254901975393295288
0.664014637470245361 0.452649533748626709 0.262745112180709839
0.664014637470245361 0.452649533748626709 0.274509817361831665
0.664014637470245361 0.464487135410308838 0.286274522542953491
0.664014637470245361 0.484216511249542236 0.286274522542953491
0.664014637470245361 0.480270624160766602 0.282352954149246216
0.664014637470245361 0.480270624160766602 0.27058824896812439
0.664014637470245361 0.464487135410308838 0.254901975393295288
0.664014637470245361 0.464487135410308838 0.250980406999588013
0.664014637470245361 0.460541278123855591 0.254901975393295288
0.664014637470245361 0.448703646659851074 0.254901975393295288
0.664014637470245361 0.444757759571075439 0.250980406999588013
0.664014637470245361 0.444757759571075439 0.247058823704719543
0.664014637470245361 0.436866015195846558 0.247058823704719543
0.684516489505767822 0.385569661855697632 0.784313738346099854
0.684516489505767822 0.397407293319702148 0.792156875133514404
0.684516489505767822 0.389515548944473267 0.800000011920928955
0.684516489505767822 0.389515548944473267 0.823529422283172607
0.684516489505767822 0.397407293319702148 0.823529422283172607
0.684516489505767822 0.40529903769493103 0.835294127464294434
0.684516489505767822 0.401353180408477783 0.890196084976196289
0.684516489505767822 0.389515548944473267 0.960784316062927246
0.684516489505767822 0.448703646659851074 0.976470589637756348
0.684516489505767822 0.456595391035079956 0.94901961088180542
0.684516489505767822 0.476324766874313354 0.925490200519561768
0.684516489505767822 0.476324766874313354 0.905882358551025391
0.684516489505767822 0.468433022499084473 0.905882358551025391
0.684516489505767822 0.464487135410308838 0.901960790157318115
0.684516489505767822 0.464487135410308838 0.882352948188781738
0.684516489505767822 0.47237887978553772 0.874509811401367188
0.684516489505767822 0.476324766874313354 0.874509811401367188
0.684516489505767822 0.476324766874313354 0.870588243007659912
0.684516489505767822 0.484216511249542236 0.862745106220245361
0.684516489505767822 0.480270624160766602 0.858823537826538086
0.684516489505767822 0.488162368535995483 0.811764717102050781
0.684516489505767822 0.484216511249542236 0.811764717102050781
0.684516489505767822 0.480270624160766602 0.807843148708343506
0.684516489505767822 0.484216511249542236 0.784313738346099854
0.684516489505767822 0.503945887088775635 0.760784327983856201
0.684516489505767822 0.50789177417755127 0.760784327983856201
0.684516489505767822 0.5 0.717647075653076172
0.684516489505767822 0.503945887088775635 0.713725507259368896
0.684516489505767822 0.511837601661682129 0.654901981353759766
0.684516489505767822 0.519729375839233398 0.647058844566345215
0.684516489505767822 0.519729375839233398 0.627451002597808838
0.684516489505767822 0.47237887978553772 0.623529434204101562
0.684516489505767822 0.47237887978553772 0.662745118141174316
0.684516489505767822 0.468433022499084473 0.69411766529083252
0.684516489505767822 0.464487135410308838 0.698039233684539795
0.684516489505767822 0.456595391035079956 0.690196096897125244
0.684516489505767822 0.456595391035079956 0.686274528503417969
0.684516489505767822 0.452649533748626709 0.686274528503417969
0.684516489505767822 0.440811902284622192 0.670588254928588867
0.684516489505767822 0.436866015195846558 0.670588254928588867
