ply
format ascii 1.0
element vertex 330
property float x
property float y
property float z
end_header
0.400709837675094604 0 0.608258426189422607
0.424539476633071899 0 0.635815083980560303
0.428511083126068115 0 0.635815083980560303
0.464255541563034058 0 0.663371741771697998
0.488085180521011353 0 0.671245098114013672
0.496028393507003784 0 0.679118454456329346
0.503971636295318604 0 0.679118454456329346
0.527801275253295898 0 0.663371741771697998
0.539716064929962158 0 0.663371741771697998
0.591346979141235352 0 0.62006843090057373
0.591346979141235352 0 0.616131722927093506
0.611204981803894043 0 0.584638357162475586
0.615176618099212646 0 0.513778328895568848
0.611204981803894043 0 0.509841680526733398
0.603261768817901611 0 0.419298291206359863
0.591346979141235352 0 0.40748828649520874
0.579432129859924316 0 0.328754901885986328
0.567517340183258057 0 0.313008219003677368
0.567517340183258057 0 0.309071540832519531
0.563545703887939453 0 0.309071540832519531
0.551630914211273193 0 0.324818223714828491
0.54765927791595459 0 0.403551608324050903
0.531772851943969727 0 0.419298291206359863
0.527801275253295898 0 0.419298291206359863
0.527801275253295898 0 0.4232349693775177
0.511914849281311035 0 0.435044974088668823
0.488085180521011353 0 0.435044974088668823
0.45234072208404541 0 0.403551608324050903
0.456312328577041626 0 0.36024823784828186
0.45234072208404541 0 0.356311589479446411
0.440425902605056763 0 0.309071540832519531
0.436454296112060547 0 0.309071540832519531
0.416596263647079468 0 0.340564906597137451
0.408653050661087036 0 0.395678281784057617
0.412624657154083252 0 0.399614930152893066
0.412624657154083252 0 0.403551608324050903
0.396738231182098389 0 0.4232349693775177
0.384823411703109741 0 0.517715036869049072
0.353050529956817627 0.0909090936183929443 0.564955055713653564
0.35702216625213623 0.0909090936183929443 0.568891704082489014
0.37688019871711731 0.0909090936183929443 0.643688440322875977
0.420567870140075684 0.0909090936183929443 0.698801755905151367
0.424539476633071899 0.0909090936183929443 0.698801755905151367
0.460283935070037842 0.0909090936183929443 0.722421824932098389
0.484113574028015137 0.0909090936183929443 0.730295121669769287
0.492056787014007568 0.0909090936183929443 0.738168478012084961
0.507943212985992432 0.0909090936183929443 0.738168478012084961
0.531772851943969727 0.0909090936183929443 0.722421824932098389
0.563545703887939453 0.0909090936183929443 0.710611820220947266
0.591346979141235352 0.0909090936183929443 0.686991751194000244
0.591346979141235352 0.0909090936183929443 0.683055102825164795
0.63106304407119751 0.0909090936183929443 0.627941727638244629
0.646949470043182373 0.0909090936183929443 0.521651685237884521
0.64297783374786377 0.0909090936183929443 0.517715036869049072
0.619148194789886475 0.0909090936183929443 0.40748828649520874
0.58340376615524292 0.0909090936183929443 0.348438233137130737
0.575460553169250488 0.0909090936183929443 0.344501584768295288
0.53574448823928833 0.0909090936183929443 0.344501584768295288
0.531772851943969727 0.0909090936183929443 0.348438233137130737
0.527801275253295898 0.0909090936183929443 0.372058272361755371
0.511914849281311035 0.0909090936183929443 0.39174160361289978
0.488085180521011353 0.0909090936183929443 0.39174160361289978
0.468227148056030273 0.0909090936183929443 0.364184916019439697
0.468227148056030273 0.0909090936183929443 0.344501584768295288
0.416596263647079468 0.0909090936183929443 0.348438233137130737
0.396738231182098389 0.0909090936183929443 0.379931598901748657
0.392766624689102173 0.0909090936183929443 0.395678281784057617
0.380851805210113525 0.0909090936183929443 0.40748828649520874
0.35702216625213623 0.0909090936183929443 0.505905032157897949
0.400709837675094604 0.0909090936183929443 0.253958195447921753
0.428511083126068115 0.0909090936183929443 0.277578204870223999
0.464255541563034058 0.0909090936183929443 0.277578204870223999
0.468227148056030273 0.0909090936183929443 0.242148175835609436
0.412624657154083252 0.0909090936183929443 0.238211512565612793
0.408653050661087036 0.0909090936183929443 0.242148175835609436
0.396738231182098389 0.0909090936183929443 0.242148175835609436
0.53574448823928833 0.0909090936183929443 0.273641526699066162
0.539716064929962158 0.0909090936183929443 0.277578204870223999
0.575460553169250488 0.0909090936183929443 0.277578204870223999
0.603261768817901611 0.0909090936183929443 0.250021517276763916
0.603261768817901611 0.0909090936183929443 0.242148175835609436
0.551630914211273193 0.0909090936183929443 0.238211512565612793
0.54765927791595459 0.0909090936183929443 0.242148175835609436
0.531772851943969727 0.0909090936183929443 0.242148175835609436
0.380851805210113525 0.181818187236785889 0.683055102825164795
0.420567870140075684 0.181818187236785889 0.730295121669769287
0.424539476633071899 0.181818187236785889 0.730295121669769287
0.448369115591049194 0.181818187236785889 0.746041834354400635
0.496028393507003784 0.181818187236785889 0.757851839065551758
0.5 0.181818187236785889 0.761788487434387207
0.503971636295318604 0.181818187236785889 0.757851839065551758
0.567517340183258057 0.181818187236785889 0.738168478012084961
0.603261768817901611 0.181818187236785889 0.706675112247467041
0.603261768817901611 0.181818187236785889 0.702738463878631592
0.623119831085205078 0.181818187236785889 0.675181746482849121
0.64297783374786377 0.181818187236785889 0.529525041580200195
0.639006257057189941 0.181818187236785889 0.525588333606719971
0.615176618099212646 0.181818187236785889 0.446854978799819946
0.579432129859924316 0.181818187236785889 0.40748828649520874
0.571488916873931885 0.181818187236785889 0.403551608324050903
0.472198754549026489 0.181818187236785889 0.39174160361289978
0.468227148056030273 0.181818187236785889 0.395678281784057617
0.420567870140075684 0.181818187236785889 0.40748828649520874
0.380851805210113525 0.181818187236785889 0.454728305339813232
0.35702216625213623 0.181818187236785889 0.533461689949035645
0.353050529956817627 0.272727280855178833 0.549208343029022217
0.35702216625213623 0.272727280855178833 0.553145051002502441
0.388795018196105957 0.272727280855178833 0.690928459167480469
0.420567870140075684 0.272727280855178833 0.726358473300933838
0.424539476633071899 0.272727280855178833 0.726358473300933838
0.456312328577041626 0.272727280855178833 0.746041834354400635
0.496028393507003784 0.272727280855178833 0.757851839065551758
0.5 0.272727280855178833 0.761788487434387207
0.503971636295318604 0.272727280855178833 0.757851839065551758
0.567517340183258057 0.272727280855178833 0.734231829643249512
0.599290192127227783 0.272727280855178833 0.706675112247467041
0.599290192127227783 0.272727280855178833 0.702738463878631592
0.619148194789886475 0.272727280855178833 0.675181746482849121
0.646949470043182373 0.272727280855178833 0.533461689949035645
0.64297783374786377 0.272727280855178833 0.529525041580200195
0.615176618099212646 0.272727280855178833 0.438981622457504272
0.59531855583190918 0.272727280855178833 0.415361613035202026
0.59531855583190918 0.272727280855178833 0.411424934864044189
0.591346979141235352 0.272727280855178833 0.411424934864044189
0.54765927791595459 0.272727280855178833 0.379931598901748657
0.472198754549026489 0.272727280855178833 0.37599492073059082
0.468227148056030273 0.272727280855178833 0.379931598901748657
0.428511083126068115 0.272727280855178833 0.39174160361289978
0.372908592224121094 0.272727280855178833 0.462601631879806519
0.35702216625213623 0.272727280855178833 0.509841680526733398
0.353050529956817627 0.363636374473571777 0.56101834774017334
0.35702216625213623 0.363636374473571777 0.564955055713653564
0.372908592224121094 0.363636374473571777 0.6554984450340271
0.424539476633071899 0.363636374473571777 0.718485116958618164
0.428511083126068115 0.363636374473571777 0.718485116958618164
0.45234072208404541 0.363636374473571777 0.734231829643249512
0.511914849281311035 0.363636374473571777 0.746041834354400635
0.515886425971984863 0.363636374473571777 0.74210512638092041
0.563545703887939453 0.363636374473571777 0.726358473300933838
0.59531855583190918 0.363636374473571777 0.702738463878631592
0.59531855583190918 0.363636374473571777 0.698801755905151367
0.627091407775878906 0.363636374473571777 0.6554984450340271
0.646949470043182373 0.363636374473571777 0.521651685237884521
0.64297783374786377 0.363636374473571777 0.517715036869049072
0.627091407775878906 0.363636374473571777 0.450791627168655396
0.59531855583190918 0.363636374473571777 0.403551608324050903
0.591346979141235352 0.363636374473571777 0.403551608324050903
0.563545703887939453 0.363636374473571777 0.379931598901748657
0.464255541563034058 0.363636374473571777 0.372058272361755371
0.460283935070037842 0.363636374473571777 0.37599492073059082
0.424539476633071899 0.363636374473571777 0.387804925441741943
0.400709837675094604 0.363636374473571777 0.40748828649520874
0.400709837675094604 0.363636374473571777 0.411424934864044189
0.372908592224121094 0.363636374473571777 0.454728305339813232
0.35702216625213623 0.363636374473571777 0.501968324184417725
0.353050529956817627 0.454545468091964722 0.584638357162475586
0.35702216625213623 0.454545468091964722 0.588575065135955811
0.37688019871711731 0.454545468091964722 0.6554984450340271
0.40468144416809082 0.454545468091964722 0.690928459167480469
0.40468144416809082 0.454545468091964722 0.694865107536315918
0.408653050661087036 0.454545468091964722 0.694865107536315918
0.444397509098052979 0.454545468091964722 0.718485116958618164
0.515886425971984863 0.454545468091964722 0.730295121669769287
0.519858062267303467 0.454545468091964722 0.726358473300933838
0.571488916873931885 0.454545468091964722 0.710611820220947266
0.599290192127227783 0.454545468091964722 0.690928459167480469
0.599290192127227783 0.454545468091964722 0.686991751194000244
0.635034620761871338 0.454545468091964722 0.635815083980560303
0.646949470043182373 0.454545468091964722 0.557081699371337891
0.64297783374786377 0.454545468091964722 0.553145051002502441
0.615176618099212646 0.454545468091964722 0.435044974088668823
0.579432129859924316 0.454545468091964722 0.395678281784057617
0.567517340183258057 0.454545468091964722 0.39174160361289978
0.559574127197265625 0.454545468091964722 0.383868277072906494
0.468227148056030273 0.454545468091964722 0.37599492073059082
0.464255541563034058 0.454545468091964722 0.379931598901748657
0.440425902605056763 0.454545468091964722 0.383868277072906494
0.392766624689102173 0.454545468091964722 0.4232349693775177
0.388795018196105957 0.454545468091964722 0.435044974088668823
0.372908592224121094 0.454545468091964722 0.458664983510971069
0.35702216625213623 0.454545468091964722 0.521651685237884521
0.37688019871711731 0.545454561710357666 0.651561737060546875
0.420567870140075684 0.545454561710357666 0.702738463878631592
0.424539476633071899 0.545454561710357666 0.702738463878631592
0.440425902605056763 0.545454561710357666 0.714548468589782715
0.523829638957977295 0.545454561710357666 0.726358473300933838
0.527801275253295898 0.545454561710357666 0.722421824932098389
0.575460553169250488 0.545454561710357666 0.706675112247467041
0.63106304407119751 0.545454561710357666 0.639751732349395752
0.646949470043182373 0.545454561710357666 0.549208343029022217
0.64297783374786377 0.545454561710357666 0.545271694660186768
0.619148194789886475 0.545454561710357666 0.446854978799819946
0.591346979141235352 0.545454561710357666 0.415361613035202026
0.587375342845916748 0.545454561710357666 0.415361613035202026
0.563545703887939453 0.545454561710357666 0.395678281784057617
0.472198754549026489 0.545454561710357666 0.387804925441741943
0.468227148056030273 0.545454561710357666 0.39174160361289978
0.436454296112060547 0.545454561710357666 0.395678281784057617
0.392766624689102173 0.545454561710357666 0.431108295917510986
0.392766624689102173 0.545454561710357666 0.435044974088668823
0.368936985731124878 0.545454561710357666 0.470474988222122192
0.35702216625213623 0.545454561710357666 0.529525041580200195
0.380851805210113525 0.636363625526428223 0.651561737060546875
0.388795018196105957 0.636363625526428223 0.659435093402862549
0.392766624689102173 0.636363625526428223 0.675181746482849121
0.428511083126068115 0.636363625526428223 0.714548468589782715
0.523829638957977295 0.636363625526428223 0.734231829643249512
0.527801275253295898 0.636363625526428223 0.730295121669769287
0.571488916873931885 0.636363625526428223 0.714548468589782715
0.623119831085205078 0.636363625526428223 0.643688440322875977
0.639006257057189941 0.636363625526428223 0.521651685237884521
0.635034620761871338 0.636363625526428223 0.517715036869049072
0.619148194789886475 0.636363625526428223 0.40748828649520874
0.611204981803894043 0.636363625526428223 0.399614930152893066
0.611204981803894043 0.636363625526428223 0.395678281784057617
0.607233405113220215 0.636363625526428223 0.395678281784057617
0.59531855583190918 0.636363625526428223 0.383868277072906494
0.58340376615524292 0.636363625526428223 0.253958195447921753
0.579432129859924316 0.636363625526428223 0.250021517276763916
0.555602490901947021 0.636363625526428223 0.250021517276763916
0.519858062267303467 0.636363625526428223 0.39174160361289978
0.507943212985992432 0.636363625526428223 0.403551608324050903
0.492056787014007568 0.636363625526428223 0.403551608324050903
0.468227148056030273 0.636363625526428223 0.368121594190597534
0.444397509098052979 0.636363625526428223 0.250021517276763916
0.420567870140075684 0.636363625526428223 0.250021517276763916
0.40468144416809082 0.636363625526428223 0.383868277072906494
0.392766624689102173 0.636363625526428223 0.395678281784057617
0.388795018196105957 0.636363625526428223 0.395678281784057617
0.360993772745132446 0.636363625526428223 0.525588333606719971
0.40468144416809082 0.727272748947143555 0.671245098114013672
0.440425902605056763 0.727272748947143555 0.710611820220947266
0.523829638957977295 0.727272748947143555 0.726358473300933838
0.527801275253295898 0.727272748947143555 0.722421824932098389
0.559574127197265625 0.727272748947143555 0.710611820220947266
0.607233405113220215 0.727272748947143555 0.647625088691711426
0.623119831085205078 0.727272748947143555 0.490158319473266602
0.619148194789886475 0.727272748947143555 0.486221671104431152
0.599290192127227783 0.727272748947143555 0.403551608324050903
0.579432129859924316 0.727272748947143555 0.387804925441741943
0.551630914211273193 0.727272748947143555 0.387804925441741943
0.551630914211273193 0.727272748947143555 0.39174160361289978
0.531772851943969727 0.727272748947143555 0.403551608324050903
0.480141967535018921 0.727272748947143555 0.40748828649520874
0.476170361042022705 0.727272748947143555 0.403551608324050903
0.45234072208404541 0.727272748947143555 0.395678281784057617
0.448369115591049194 0.727272748947143555 0.39174160361289978
0.448369115591049194 0.727272748947143555 0.387804925441741943
0.420567870140075684 0.727272748947143555 0.387804925441741943
0.400709837675094604 0.727272748947143555 0.403551608324050903
0.37688019871711731 0.727272748947143555 0.494094997644424438
0.412624657154083252 0.727272748947143555 0.253958195447921753
0.432482689619064331 0.727272748947143555 0.250021517276763916
0.436454296112060547 0.727272748947143555 0.253958195447921753
0.448369115591049194 0.727272748947143555 0.250021517276763916
0.448369115591049194 0.727272748947143555 0.242148175835609436
0.412624657154083252 0.727272748947143555 0.242148175835609436
0.408653050661087036 0.727272748947143555 0.246084854006767273
0.551630914211273193 0.727272748947143555 0.250021517276763916
0.563545703887939453 0.727272748947143555 0.253958195447921753
0.567517340183258057 0.727272748947143555 0.250021517276763916
0.587375342845916748 0.727272748947143555 0.253958195447921753
0.591346979141235352 0.727272748947143555 0.250021517276763916
0.591346979141235352 0.727272748947143555 0.242148175835609436
0.551630914211273193 0.727272748947143555 0.242148175835609436
0.424539476633071899 0.818181812763214111 0.639751732349395752
0.456312328577041626 0.818181812763214111 0.675181746482849121
0.519858062267303467 0.818181812763214111 0.686991751194000244
0.567517340183258057 0.818181812763214111 0.651561737060546875
0.567517340183258057 0.818181812763214111 0.647625088691711426
0.58340376615524292 0.818181812763214111 0.62400507926940918
0.599290192127227783 0.818181812763214111 0.537398338317871094
0.59531855583190918 0.818181812763214111 0.533461689949035645
0.571488916873931885 0.818181812763214111 0.403551608324050903
0.559574127197265625 0.818181812763214111 0.395678281784057617
0.53574448823928833 0.818181812763214111 0.399614930152893066
0.531772851943969727 0.818181812763214111 0.395678281784057617
0.456312328577041626 0.818181812763214111 0.399614930152893066
0.45234072208404541 0.818181812763214111 0.395678281784057617
0.432482689619064331 0.818181812763214111 0.399614930152893066
0.428511083126068115 0.818181812763214111 0.403551608324050903
0.400709837675094604 0.818181812763214111 0.537398338317871094
0.436454296112060547 0.909090936183929443 0.494094997644424438
0.432482689619064331 0.909090936183929443 0.498031675815582275
0.45234072208404541 0.909090936183929443 0.616131722927093506
0.472198754549026489 0.909090936183929443 0.639751732349395752
0.527801275253295898 0.909090936183929443 0.639751732349395752
0.559574127197265625 0.909090936183929443 0.59251171350479126
0.567517340183258057 0.909090936183929443 0.498031675815582275
0.563545703887939453 0.909090936183929443 0.494094997644424438
0.567517340183258057 0.909090936183929443 0.435044974088668823
0.559574127197265625 0.909090936183929443 0.4232349693775177
0.54765927791595459 0.909090936183929443 0.37599492073059082
0.551630914211273193 0.909090936183929443 0.372058272361755371
0.555602490901947021 0.909090936183929443 0.340564906597137451
0.448369115591049194 0.909090936183929443 0.340564906597137451
0.444397509098052979 0.909090936183929443 0.344501584768295288
0.45234072208404541 0.909090936183929443 0.39174160361289978
0.448369115591049194 0.909090936183929443 0.395678281784057617
0.432482689619064331 0.909090936183929443 0.438981622457504272
0.424539476633071899 1 0.328754901885986328
0.436454296112060547 1 0.368121594190597534
0.444397509098052979 1 0.37599492073059082
0.464255541563034058 1 0.474411666393280029
0.45234072208404541 1 0.486221671104431152
0.448369115591049194 1 0.486221671104431152
0.448369115591049194 1 0.494094997644424438
0.460283935070037842 1 0.509841680526733398
0.468227148056030273 1 0.533461689949035645
0.507943212985992432 1 0.537398338317871094
0.511914849281311035 1 0.533461689949035645
0.531772851943969727 1 0.533461689949035645
0.53574448823928833 1 0.529525041580200195
0.543687701225280762 1 0.501968324184417725
0.551630914211273193 1 0.494094997644424438
0.551630914211273193 1 0.486221671104431152
0.54765927791595459 1 0.486221671104431152
0.53574448823928833 1 0.474411666393280029
0.555602490901947021 1 0.37599492073059082
0.575460553169250488 1 0.344501584768295288
0.579432129859924316 1 0.320881575345993042
0.575460553169250488 1 0.316944897174835205
0.575460553169250488 1 0.305134892463684082
0.559574127197265625 1 0.289388209581375122
0.464255541563034058 1 0.293324887752532959
0.460283935070037842 1 0.289388209581375122
0.440425902605056763 1 0.289388209581375122
0.424539476633071899 1 0.305134892463684082
0.424539476633071899 1 0.316944897174835205
0.420567870140075684 1 0.320881575345993042
