ply
format ascii 1.0
element vertex 330
property float x
property float y
property float z
end_header
0.400709837675094604 0.608258426189422607 0
0.424539476633071899 0.635815083980560303 0
0.428511083126068115 0.635815083980560303 0
0.464255541563034058 0.663371741771697998 0
0.488085180521011353 0.671245098114013672 0
0.496028393507003784 0.679118454456329346 0
0.503971636295318604 0.679118454456329346 0
0.527801275253295898 0.663371741771697998 0
0.539716064929962158 0.663371741771697998 0
0.591346979141235352 0.62006843090057373 0
0.591346979141235352 0.616131722927093506 0
0.611204981803894043 0.584638357162475586 0
0.615176618099212646 0.513778328895568848 0
0.611204981803894043 0.509841680526733398 0
0.603261768817901611 0.419298291206359863 0
0.591346979141235352 0.40748828649520874 0
0.579432129859924316 0.328754901885986328 0
0.567517340183258057 0.313008219003677368 0
0.567517340183258057 0.309071540832519531 0
0.563545703887939453 0.309071540832519531 0
0.551630914211273193 0.324818223714828491 0
0.54765927791595459 0.403551608324050903 0
0.531772851943969727 0.419298291206359863 0
0.527801275253295898 0.419298291206359863 0
0.527801275253295898 0.4232349693775177 0
0.511914849281311035 0.435044974088668823 0
0.488085180521011353 0.435044974088668823 0
0.45234072208404541 0.403551608324050903 0
0.456312328577041626 0.36024823784828186 0
0.45234072208404541 0.356311589479446411 0
0.440425902605056763 0.309071540832519531 0
0.436454296112060547 0.309071540832519531 0
0.416596263647079468 0.340564906597137451 0
0.408653050661087036 0.395678281784057617 0
0.412624657154083252 0.399614930152893066 0
0.412624657154083252 0.403551608324050903 0
0.396738231182098389 0.4232349693775177 0
0.384823411703109741 0.517715036869049072 0
0.353050529956817627 0.564955055713653564 0.0909090936183929443
0.35702216625213623 0.568891704082489014 0.0909090936183929443
0.37688019871711731 0.643688440322875977 0.0909090936183929443
0.420567870140075684 0.698801755905151367 0.0909090936183929443
0.424539476633071899 0.698801755905151367 0.0909090936183929443
0.460283935070037842 0.722421824932098389 0.0909090936183929443
0.484113574028015137 0.730295121669769287 0.0909090936183929443
0.492056787014007568 0.738168478012084961 0.0909090936183929443
0.507943212985992432 0.738168478012084961 0.0909090936183929443
0.531772851943969727 0.722421824932098389 0.0909090936183929443
0.563545703887939453 0.710611820220947266 0.0909090936183929443
0.591346979141235352 0.686991751194000244 0.0909090936183929443
0.591346979141235352 0.683055102825164795 0.0909090936183929443
0.63106304407119751 0.627941727638244629 0.0909090936183929443
0.646949470043182373 0.521651685237884521 0.0909090936183929443
0.64297783374786377 0.517715036869049072 0.0909090936183929443
0.619148194789886475 0.40748828649520874 0.0909090936183929443
0.58340376615524292 0.348438233137130737 0.0909090936183929443
0.575460553169250488 0.344501584768295288 0.0909090936183929443
0.53574448823928833 0.344501584768295288 0.0909090936183929443
0.531772851943969727 0.348438233137130737 0.0909090936183929443
0.527801275253295898 0.372058272361755371 0.0909090936183929443
0.511914849281311035 0.39174160361289978 0.0909090936183929443
0.488085180521011353 0.39174160361289978 0.0909090936183929443
0.468227148056030273 0.364184916019439697 0.0909090936183929443
0.468227148056030273 0.344501584768295288 0.0909090936183929443
0.416596263647079468 0.348438233137130737 0.0909090936183929443
0.396738231182098389 0.379931598901748657 0.0909090936183929443
0.392766624689102173 0.395678281784057617 0.0909090936183929443
0.380851805210113525 0.40748828649520874 0.0909090936183929443
0.35702216625213623 0.505905032157897949 0.0909090936183929443
0.400709837675094604 0.253958195447921753 0.0909090936183929443
0.428511083126068115 0.277578204870223999 0.0909090936183929443
0.464255541563034058 0.277578204870223999 0.0909090936183929443
0.468227148056030273 0.242148175835609436 0.0909090936183929443
0.412624657154083252 0.238211512565612793 0.0909090936183929443
0.408653050661087036 0.242148175835609436 0.0909090936183929443
0.396738231182098389 0.242148175835609436 0.0909090936183929443
0.53574448823928833 0.273641526699066162 0.0909090936183929443
0.539716064929962158 0.277578204870223999 0.0909090936183929443
0.575460553169250488 0.277578204870223999 0.0909090936183929443
0.603261768817901611 0.250021517276763916 0.0909090936183929443
0.603261768817901611 0.242148175835609436 0.0909090936183929443
0.551630914211273193 0.238211512565612793 0.0909090936183929443
0.54765927791595459 0.242148175835609436 0.0909090936183929443
0.531772851943969727 0.242148175835609436 0.0909090936183929443
0.380851805210113525 0.683055102825164795 0.181818187236785889
0.420567870140075684 0.730295121669769287 0.181818187236785889
0.424539476633071899 0.730295121669769287 0.181818187236785889
0.448369115591049194 0.746041834354400635 0.181818187236785889
0.496028393507003784 0.757851839065551758 0.181818187236785889
0.5 0.761788487434387207 0.181818187236785889
0.503971636295318604 0.757851839065551758 0.181818187236785889
0.567517340183258057 0.738168478012084961 0.181818187236785889
0.603261768817901611 0.706675112247467041 0.181818187236785889
0.603261768817901611 0.702738463878631592 0.181818187236785889
0.623119831085205078 0.675181746482849121 0.181818187236785889
0.64297783374786377 0.529525041580200195 0.181818187236785889
0.639006257057189941 0.525588333606719971 0.181818187236785889
0.615176618099212646 0.446854978799819946 0.181818187236785889
0.579432129859924316 0.40748828649520874 0.181818187236785889
0.571488916873931885 0.403551608324050903 0.181818187236785889
0.472198754549026489 0.39174160361289978 0.181818187236785889
0.468227148056030273 0.395678281784057617 0.181818187236785889
0.420567870140075684 0.40748828649520874 0.181818187236785889
0.380851805210113525 0.454728305339813232 0.181818187236785889
0.35702216625213623 0.533461689949035645 0.181818187236785889
0.353050529956817627 0.549208343029022217 0.272727280855178833
0.35702216625213623 0.553145051002502441 0.272727280855178833
0.388795018196105957 0.690928459167480469 0.272727280855178833
0.420567870140075684 0.726358473300933838 0.272727280855178833
0.424539476633071899 0.726358473300933838 0.272727280855178833
0.456312328577041626 0.746041834354400635 0.272727280855178833
0.496028393507003784 0.757851839065551758 0.272727280855178833
0.5 0.761788487434387207 0.272727280855178833
0.503971636295318604 0.757851839065551758 0.272727280855178833
0.567517340183258057 0.734231829643249512 0.272727280855178833
0.599290192127227783 0.706675112247467041 0.272727280855178833
0.599290192127227783 0.702738463878631592 0.272727280855178833
0.619148194789886475 0.675181746482849121 0.272727280855178833
0.646949470043182373 0.533461689949035645 0.272727280855178833
0.64297783374786377 0.529525041580200195 0.272727280855178833
0.615176618099212646 0.438981622457504272 0.272727280855178833
0.59531855583190918 0.415361613035202026 0.272727280855178833
0.59531855583190918 0.411424934864044189 0.272727280855178833
0.591346979141235352 0.411424934864044189 0.272727280855178833
0.54765927791595459 0.379931598901748657 0.272727280855178833
0.472198754549026489 0.37599492073059082 0.272727280855178833
0.468227148056030273 0.379931598901748657 0.272727280855178833
0.428511083126068115 0.39174160361289978 0.272727280855178833
0.372908592224121094 0.462601631879806519 0.272727280855178833
0.35702216625213623 0.509841680526733398 0.272727280855178833
0.353050529956817627 0.56101834774017334 0.363636374473571777
0.35702216625213623 0.564955055713653564 0.363636374473571777
0.372908592224121094 0.6554984450340271 0.363636374473571777
0.424539476633071899 0.718485116958618164 0.363636374473571777
0.428511083126068115 0.718485116958618164 0.363636374473571777
0.45234072208404541 0.734231829643249512 0.363636374473571777
0.511914849281311035 0.746041834354400635 0.363636374473571777
0.515886425971984863 0.74210512638092041 0.363636374473571777
0.563545703887939453 0.726358473300933838 0.363636374473571777
0.59531855583190918 0.702738463878631592 0.363636374473571777
0.59531855583190918 0.698801755905151367 0.363636374473571777
0.627091407775878906 0.6554984450340271 0.363636374473571777
0.646949470043182373 0.521651685237884521 0.363636374473571777
0.64297783374786377 0.517715036869049072 0.363636374473571777
0.627091407775878906 0.450791627168655396 0.363636374473571777
0.59531855583190918 0.403551608324050903 0.363636374473571777
0.591346979141235352 0.403551608324050903 0.363636374473571777
0.563545703887939453 0.379931598901748657 0.363636374473571777
0.464255541563034058 0.372058272361755371 0.363636374473571777
0.460283935070037842 0.37599492073059082 0.363636374473571777
0.424539476633071899 0.387804925441741943 0.363636374473571777
0.400709837675094604 0.40748828649520874 0.363636374473571777
0.400709837675094604 0.411424934864044189 0.363636374473571777
0.372908592224121094 0.454728305339813232 0.363636374473571777
0.35702216625213623 0.501968324184417725 0.363636374473571777
0.353050529956817627 0.584638357162475586 0.454545468091964722
0.35702216625213623 0.588575065135955811 0.454545468091964722
0.37688019871711731 0.6554984450340271 0.454545468091964722
0.40468144416809082 0.690928459167480469 0.454545468091964722
0.40468144416809082 0.694865107536315918 0.454545468091964722
0.408653050661087036 0.694865107536315918 0.454545468091964722
0.444397509098052979 0.718485116958618164 0.454545468091964722
0.515886425971984863 0.730295121669769287 0.454545468091964722
0.519858062267303467 0.726358473300933838 0.454545468091964722
0.571488916873931885 0.710611820220947266 0.454545468091964722
0.599290192127227783 0.690928459167480469 0.454545468091964722
0.599290192127227783 0.686991751194000244 0.454545468091964722
0.635034620761871338 0.635815083980560303 0.454545468091964722
0.646949470043182373 0.557081699371337891 0.454545468091964722
0.64297783374786377 0.553145051002502441 0.454545468091964722
0.615176618099212646 0.435044974088668823 0.454545468091964722
0.579432129859924316 0.395678281784057617 0.454545468091964722
0.567517340183258057 0.39174160361289978 0.454545468091964722
0.559574127197265625 0.383868277072906494 0.454545468091964722
0.468227148056030273 0.37599492073059082 0.454545468091964722
0.464255541563034058 0.379931598901748657 0.454545468091964722
0.440425902605056763 0.383868277072906494 0.454545468091964722
0.392766624689102173 0.4232349693775177 0.454545468091964722
0.388795018196105957 0.435044974088668823 0.454545468091964722
0.372908592224121094 0.458664983510971069 0.454545468091964722
0.35702216625213623 0.521651685237884521 0.454545468091964722
0.37688019871711731 0.651561737060546875 0.545454561710357666
0.420567870140075684 0.702738463878631592 0.545454561710357666
0.424539476633071899 0.702738463878631592 0.545454561710357666
0.440425902605056763 0.714548468589782715 0.545454561710357666
0.523829638957977295 0.726358473300933838 0.545454561710357666
0.527801275253295898 0.722421824932098389 0.545454561710357666
0.575460553169250488 0.706675112247467041 0.545454561710357666
0.63106304407119751 0.639751732349395752 0.545454561710357666
0.646949470043182373 0.549208343029022217 0.545454561710357666
0.64297783374786377 0.545271694660186768 0.545454561710357666
0.619148194789886475 0.446854978799819946 0.545454561710357666
0.591346979141235352 0.415361613035202026 0.545454561710357666
0.587375342845916748 0.415361613035202026 0.545454561710357666
0.563545703887939453 0.395678281784057617 0.545454561710357666
0.472198754549026489 0.387804925441741943 0.545454561710357666
0.468227148056030273 0.39174160361289978 0.545454561710357666
0.436454296112060547 0.395678281784057617 0.545454561710357666
0.392766624689102173 0.431108295917510986 0.545454561710357666
0.392766624689102173 0.435044974088668823 0.545454561710357666
0.368936985731124878 0.470474988222122192 0.545454561710357666
0.35702216625213623 0.529525041580200195 0.545454561710357666
0.380851805210113525 0.651561737060546875 0.636363625526428223
0.388795018196105957 0.659435093402862549 0.636363625526428223
0.392766624689102173 0.675181746482849121 0.636363625526428223
0.428511083126068115 0.714548468589782715 0.636363625526428223
0.523829638957977295 0.734231829643249512 0.636363625526428223
0.527801275253295898 0.730295121669769287 0.636363625526428223
0.571488916873931885 0.714548468589782715 0.636363625526428223
0.623119831085205078 0.643688440322875977 0.636363625526428223
0.639006257057189941 0.521651685237884521 0.636363625526428223
0.635034620761871338 0.517715036869049072 0.636363625526428223
0.619148194789886475 0.40748828649520874 0.636363625526428223
0.611204981803894043 0.399614930152893066 0.636363625526428223
0.611204981803894043 0.395678281784057617 0.636363625526428223
0.607233405113220215 0.395678281784057617 0.636363625526428223
0.59531855583190918 0.383868277072906494 0.636363625526428223
0.58340376615524292 0.253958195447921753 0.636363625526428223
0.579432129859924316 0.250021517276763916 0.636363625526428223
0.555602490901947021 0.250021517276763916 0.636363625526428223
0.519858062267303467 0.39174160361289978 0.636363625526428223
0.507943212985992432 0.403551608324050903 0.636363625526428223
0.492056787014007568 0.403551608324050903 0.636363625526428223
0.468227148056030273 0.368121594190597534 0.636363625526428223
0.444397509098052979 0.250021517276763916 0.636363625526428223
0.420567870140075684 0.250021517276763916 0.636363625526428223
0.40468144416809082 0.383868277072906494 0.636363625526428223
0.392766624689102173 0.395678281784057617 0.636363625526428223
0.388795018196105957 0.395678281784057617 0.636363625526428223
0.360993772745132446 0.525588333606719971 0.636363625526428223
0.40468144416809082 0.671245098114013672 0.727272748947143555
0.440425902605056763 0.710611820220947266 0.727272748947143555
0.523829638957977295 0.726358473300933838 0.727272748947143555
0.527801275253295898 0.722421824932098389 0.727272748947143555
0.559574127197265625 0.710611820220947266 0.727272748947143555
0.607233405113220215 0.647625088691711426 0.727272748947143555
0.623119831085205078 0.490158319473266602 0.727272748947143555
0.619148194789886475 0.486221671104431152 0.727272748947143555
0.599290192127227783 0.403551608324050903 0.727272748947143555
0.579432129859924316 0.387804925441741943 0.727272748947143555
0.551630914211273193 0.387804925441741943 0.727272748947143555
0.551630914211273193 0.39174160361289978 0.727272748947143555
0.531772851943969727 0.403551608324050903 0.727272748947143555
0.480141967535018921 0.40748828649520874 0.727272748947143555
0.476170361042022705 0.403551608324050903 0.727272748947143555
0.45234072208404541 0.395678281784057617 0.727272748947143555
0.448369115591049194 0.39174160361289978 0.727272748947143555
0.448369115591049194 0.387804925441741943 0.727272748947143555
0.420567870140075684 0.387804925441741943 0.727272748947143555
0.400709837675094604 0.403551608324050903 0.727272748947143555
0.37688019871711731 0.494094997644424438 0.727272748947143555
0.412624657154083252 0.253958195447921753 0.727272748947143555
0.432482689619064331 0.250021517276763916 0.727272748947143555
0.436454296112060547 0.253958195447921753 0.727272748947143555
0.448369115591049194 0.250021517276763916 0.727272748947143555
0.448369115591049194 0.242148175835609436 0.727272748947143555
0.412624657154083252 0.242148175835609436 0.727272748947143555
0.408653050661087036 0.246084854006767273 0.727272748947143555
0.551630914211273193 0.250021517276763916 0.727272748947143555
0.563545703887939453 0.253958195447921753 0.727272748947143555
0.567517340183258057 0.250021517276763916 0.727272748947143555
0.587375342845916748 0.253958195447921753 0.727272748947143555
0.591346979141235352 0.250021517276763916 0.727272748947143555
0.591346979141235352 0.242148175835609436 0.727272748947143555
0.551630914211273193 0.242148175835609436 0.727272748947143555
0.424539476633071899 0.639751732349395752 0.818181812763214111
0.456312328577041626 0.675181746482849121 0.818181812763214111
0.519858062267303467 0.686991751194000244 0.818181812763214111
0.567517340183258057 0.651561737060546875 0.818181812763214111
0.567517340183258057 0.647625088691711426 0.818181812763214111
0.58340376615524292 0.62400507926940918 0.818181812763214111
0.599290192127227783 0.537398338317871094 0.818181812763214111
0.59531855583190918 0.533461689949035645 0.818181812763214111
0.571488916873931885 0.403551608324050903 0.818181812763214111
0.559574127197265625 0.395678281784057617 0.818181812763214111
0.53574448823928833 0.399614930152893066 0.818181812763214111
0.531772851943969727 0.395678281784057617 0.818181812763214111
0.456312328577041626 0.399614930152893066 0.818181812763214111
0.45234072208404541 0.395678281784057617 0.818181812763214111
0.432482689619064331 0.399614930152893066 0.818181812763214111
0.428511083126068115 0.403551608324050903 0.818181812763214111
0.400709837675094604 0.537398338317871094 0.818181812763214111
0.436454296112060547 0.494094997644424438 0.909090936183929443
0.432482689619064331 0.498031675815582275 0.909090936183929443
0.45234072208404541 0.616131722927093506 0.909090936183929443
0.472198754549026489 0.639751732349395752 0.909090936183929443
0.527801275253295898 0.639751732349395752 0.909090936183929443
0.559574127197265625 0.59251171350479126 0.909090936183929443
0.567517340183258057 0.498031675815582275 0.909090936183929443
0.563545703887939453 0.494094997644424438 0.909090936183929443
0.567517340183258057 0.435044974088668823 0.909090936183929443
0.559574127197265625 0.4232349693775177 0.909090936183929443
0.54765927791595459 0.37599492073059082 0.909090936183929443
0.551630914211273193 0.372058272361755371 0.909090936183929443
0.555602490901947021 0.340564906597137451 0.909090936183929443
0.448369115591049194 0.340564906597137451 0.909090936183929443
0.444397509098052979 0.344501584768295288 0.909090936183929443
0.45234072208404541 0.39174160361289978 0.909090936183929443
0.448369115591049194 0.395678281784057617 0.909090936183929443
0.432482689619064331 0.438981622457504272 0.909090936183929443
0.424539476633071899 0.328754901885986328 1
0.436454296112060547 0.368121594190597534 1
0.444397509098052979 0.37599492073059082 1
0.464255541563034058 0.474411666393280029 1
0.45234072208404541 0.486221671104431152 1
0.448369115591049194 0.486221671104431152 1
0.448369115591049194 0.494094997644424438 1
0.460283935070037842 0.509841680526733398 1
0.468227148056030273 0.533461689949035645 1
0.507943212985992432 0.537398338317871094 1
0.511914849281311035 0.533461689949035645 1
0.531772851943969727 0.533461689949035645 1
0.53574448823928833 0.529525041580200195 1
0.543687701225280762 0.501968324184417725 1
0.551630914211273193 0.494094997644424438 1
0.551630914211273193 0.486221671104431152 1
0.54765927791595459 0.486221671104431152 1
0.53574448823928833 0.474411666393280029 1
0.555602490901947021 0.37599492073059082 1
0.575460553169250488 0.344501584768295288 1
0.579432129859924316 0.320881575345993042 1
0.575460553169250488 0.316944897174835205 1
0.575460553169250488 0.305134892463684082 1
0.559574127197265625 0.289388209581375122 1
0.464255541563034058 0.293324887752532959 1
0.460283935070037842 0.289388209581375122 1
0.440425902605056763 0.289388209581375122 1
0.424539476633071899 0.305134892463684082 1
0.424539476633071899 0.316944897174835205 1
0.420567870140075684 0.320881575345993042 1
