ply
format ascii 1.0
element vertex 256
property float x
property float y
property float z
end_header
0.270902276039123535 0.991999983787536621 0.722567379474639893
0.270902276039123535 1 0.730660736560821533
0.270902276039123535 0.980000019073486328 0.803500950336456299
0.270902276039123535 0.972000002861022949 0.811594307422637939
0.270902276039123535 0.972000002861022949 0.815641045570373535
0.270902276039123535 0.96799999475479126 0.815641045570373535
0.270902276039123535 0.952000021934509277 0.827781081199645996
0.270902276039123535 0.912000000476837158 0.831827759742736816
0.270902276039123535 0.916000008583068848 0.783267557621002197
0.270902276039123535 0.912000000476837158 0.779220879077911377
0.270902276039123535 0.916000008583068848 0.742800772190093994
0.270902276039123535 0.952000021934509277 0.718520700931549072
0.385451138019561768 0.959999978542327881 0.742800772190093994
0.385451138019561768 0.984000027179718018 0.771127521991729736
0.385451138019561768 0.984000027179718018 0.791360914707183838
0.385451138019561768 0.987999975681304932 0.795407593250274658
0.385451138019561768 0.984000027179718018 0.799454271793365479
0.385451138019561768 0.987999975681304932 0.839921116828918457
0.385451138019561768 0.991999983787536621 0.843967795372009277
0.385451138019561768 0.984000027179718018 0.856107831001281738
0.385451138019561768 0.980000019073486328 0.856107831001281738
0.385451138019561768 0.939999997615814209 0.904667973518371582
0.385451138019561768 0.907999992370605469 0.908714652061462402
0.385451138019561768 0.89999997615814209 0.916808009147644043
0.385451138019561768 0.884000003337860107 0.916808009147644043
0.385451138019561768 0.864000022411346436 0.88443458080291748
0.385451138019561768 0.860000014305114746 0.864201188087463379
0.385451138019561768 0.864000022411346436 0.860154509544372559
0.385451138019561768 0.86799997091293335 0.839921116828918457
0.385451138019561768 0.864000022411346436 0.835874438285827637
0.385451138019561768 0.851999998092651367 0.763034164905548096
0.385451138019561768 0.856000006198883057 0.758987486362457275
0.385451138019561768 0.860000014305114746 0.742800772190093994
0.385451138019561768 0.864000022411346436 0.742800772190093994
0.385451138019561768 0.871999979019165039 0.734707415103912354
0.385451138019561768 0.879999995231628418 0.734707415103912354
0.385451138019561768 0.884000003337860107 0.730660736560821533
0.5 0.052000001072883606 0.083191990852355957
0.5 0.0560000017285346985 0.0872386693954467773
0.5 0.052000001072883606 0.0912853479385375977
0.5 0.052000001072883606 0.107472069561481476
0.5 0.0320000015199184418 0.127705469727516174
0.5 0.0320000015199184418 0.131752148270606995
0.5 0.0280000008642673492 0.131752148270606995
0.5 0.0160000007599592209 0.0993787124752998352
0.5 0.0199999995529651642 0.095332026481628418
0.5 0.0199999995529651642 0.083191990852355957
0.5 0.740000009536743164 0.083191990852355957
0.5 0.744000017642974854 0.0872386693954467773
0.5 0.731999993324279785 0.103425391018390656
0.5 0.731999993324279785 0.115565426647663116
0.5 0.708000004291534424 0.139845505356788635
0.5 0.699999988079071045 0.184358984231948853
0.5 0.684000015258789062 0.208639055490493774
0.5 0.695999979972839355 0.293619334697723389
0.5 0.691999971866607666 0.297666013240814209
0.5 0.688000023365020752 0.410973042249679565
0.5 0.744000017642974854 0.5
0.5 0.772000014781951904 0.665913879871368408
0.5 0.787999987602233887 0.678053915500640869
0.5 0.804000020027160645 0.682100594043731689
0.5 0.839999973773956299 0.718520700931549072
0.5 0.843999981880187988 0.718520700931549072
0.5 0.843999981880187988 0.722567379474639893
0.5 0.86799997091293335 0.742800772190093994
0.5 0.86799997091293335 0.746847450733184814
0.5 0.89999997615814209 0.787314236164093018
0.5 0.916000008583068848 0.860154509544372559
0.5 0.912000000476837158 0.864201188087463379
0.5 0.903999984264373779 0.888481259346008301
0.5 0.871999979019165039 0.908714652061462402
0.5 0.815999984741210938 0.896574616432189941
0.5 0.783999979496002197 0.868247866630554199
0.5 0.783999979496002197 0.864201188087463379
0.5 0.740000009536743164 0.791360914707183838
0.5 0.731999993324279785 0.734707415103912354
0.5 0.736000001430511475 0.730660736560821533
0.5 0.736000001430511475 0.714474022388458252
0.5 0.720000028610229492 0.69424062967300415
0.5 0.712000012397766113 0.69019395112991333
0.5 0.639999985694885254 0.702333986759185791
0.5 0.620000004768371582 0.69019395112991333
0.5 0.579999983310699463 0.678053915500640869
0.5 0.547999978065490723 0.653773844242095947
0.5 0.495999991893768311 0.645680487155914307
0.5 0.492000013589859009 0.649727165699005127
0.5 0.363999992609024048 0.669960558414459229
0.5 0.316000014543533325 0.698287308216094971
0.5 0.231999993324279785 0.706380665302276611
0.5 0.22800000011920929 0.702333986759185791
0.5 0.148000001907348633 0.678053915500640869
0.5 0.119999997317790985 0.653773844242095947
0.5 0.119999997317790985 0.649727165699005127
0.5 0.104000002145767212 0.625447094440460205
0.5 0.0920000001788139343 0.5
0.5 0.0960000008344650269 0.49595332145690918
0.5 0.100000001490116119 0.455486536026000977
0.5 0.0960000008344650269 0.451439857482910156
0.5 0.0920000001788139343 0.435253113508224487
0.5 0.052000001072883606 0.394786328077316284
0.5 0.0480000004172325134 0.394786328077316284
0.5 0.0480000004172325134 0.390739649534225464
0.5 0.0399999991059303284 0.382646292448043823
0.5 0.0280000008642673492 0.269339263439178467
0.5 0.0320000015199184418 0.265292584896087646
0.5 0.0320000015199184418 0.249105855822563171
0.5 0.0359999984502792358 0.249105855822563171
0.5 0.0399999991059303284 0.261245906352996826
0.5 0.151999995112419128 0.419066399335861206
0.5 0.151999995112419128 0.423113077878952026
0.5 0.140000000596046448 0.415019720792770386
0.5 0.136000007390975952 0.415019720792770386
0.5 0.131999999284744263 0.419066399335861206
0.5 0.143999993801116943 0.471673250198364258
0.5 0.156000003218650818 0.483813285827636719
0.5 0.167999997735023499 0.463579893112182617
0.5 0.159999996423721313 0.427159756422042847
0.5 0.203999996185302734 0.475719928741455078
0.5 0.208000004291534424 0.475719928741455078
0.5 0.224000006914138794 0.487859964370727539
0.5 0.287999987602233887 0.50404667854309082
0.5 0.384000003337860107 0.439299792051315308
0.5 0.46399998664855957 0.427159756422042847
0.5 0.46799999475479126 0.423113077878952026
0.5 0.472000002861022949 0.427159756422042847
0.5 0.53600001335144043 0.443346470594406128
0.5 0.56800001859664917 0.467626571655273438
0.5 0.587999999523162842 0.471673250198364258
0.5 0.603999972343444824 0.455486536026000977
0.5 0.607999980449676514 0.427159756422042847
0.5 0.603999972343444824 0.423113077878952026
0.5 0.603999972343444824 0.415019720792770386
0.5 0.607999980449676514 0.410973042249679565
0.5 0.624000012874603271 0.406926363706588745
0.5 0.628000020980834961 0.402879685163497925
0.5 0.675999999046325684 0.184358984231948853
0.5 0.671999990940093994 0.180312305688858032
0.5 0.675999999046325684 0.156032219529151917
0.5 0.680000007152557373 0.156032219529151917
0.5 0.699999988079071045 0.139845505356788635
0.5 0.703999996185302734 0.131752148270606995
0.5 0.703999996185302734 0.107472069561481476
0.5 0.699999988079071045 0.103425391018390656
0.5 0.708000004291534424 0.0912853479385375977
0.5 0.708000004291534424 0.083191990852355957
0.5 0.0359999984502792358 0.200545698404312134
0.5 0.0320000015199184418 0.204592376947402954
0.5 0.0320000015199184418 0.220779106020927429
0.5 0.0280000008642673492 0.22482578456401825
0.5 0.0320000015199184418 0.22887246310710907
0.5 0.0320000015199184418 0.23291914165019989
0.5 0.00400000018998980522 0.196499019861221313
0.5 0 0.168172270059585571
0.5 0.0240000002086162567 0.147938862442970276
0.5 0.0240000002086162567 0.143892183899879456
0.614548861980438232 0.695999979972839355 0.431206434965133667
0.614548861980438232 0.716000020503997803 0.447393149137496948
0.614548861980438232 0.716000020503997803 0.451439857482910156
0.614548861980438232 0.736000001430511475 0.479766607284545898
0.614548861980438232 0.828000009059906006 0.771127521991729736
0.614548861980438232 0.824000000953674316 0.775174200534820557
0.614548861980438232 0.819999992847442627 0.807547628879547119
0.614548861980438232 0.804000020027160645 0.819687724113464355
0.614548861980438232 0.748000025749206543 0.823734402656555176
0.614548861980438232 0.744000017642974854 0.819687724113464355
0.614548861980438232 0.716000020503997803 0.811594307422637939
0.614548861980438232 0.579999983310699463 0.710427343845367432
0.614548861980438232 0.23999999463558197 0.718520700931549072
0.614548861980438232 0.236000001430511475 0.714474022388458252
0.614548861980438232 0.159999996423721313 0.698287308216094971
0.614548861980438232 0.115999996662139893 0.661867201328277588
0.614548861980438232 0.108000002801418304 0.593073606491088867
0.614548861980438232 0.112000003457069397 0.589026927947998047
0.614548861980438232 0.123999997973442078 0.556653499603271484
0.614548861980438232 0.172000005841255188 0.5
0.614548861980438232 0.175999999046325684 0.5
0.614548861980438232 0.192000001668930054 0.487859964370727539
0.614548861980438232 0.275999993085861206 0.49595332145690918
0.614548861980438232 0.372000008821487427 0.427159756422042847
0.614548861980438232 0.444000005722045898 0.406926363706588745
0.729097723960876465 0.624000012874603271 0.083191990852355957
0.729097723960876465 0.624000012874603271 0.0872386693954467773
0.729097723960876465 0.611999988555908203 0.0993787124752998352
0.729097723960876465 0.611999988555908203 0.107472069561481476
0.729097723960876465 0.592000007629394531 0.135798826813697815
0.729097723960876465 0.656000018119812012 0.390739649534225464
0.729097723960876465 0.708000004291534424 0.471673250198364258
0.729097723960876465 0.712000012397766113 0.491906642913818359
0.729097723960876465 0.744000017642974854 0.536420106887817383
0.729097723960876465 0.748000025749206543 0.572840213775634766
0.729097723960876465 0.751999974250793457 0.576886892318725586
0.729097723960876465 0.748000025749206543 0.580933570861816406
0.729097723960876465 0.736000001430511475 0.629493772983551025
0.729097723960876465 0.703999996185302734 0.653773844242095947
0.729097723960876465 0.628000020980834961 0.657820522785186768
0.729097723960876465 0.592000007629394531 0.637587130069732666
0.729097723960876465 0.527999997138977051 0.629493772983551025
0.729097723960876465 0.523999989032745361 0.633540451526641846
0.729097723960876465 0.356000006198883057 0.682100594043731689
0.729097723960876465 0.324000000953674316 0.702333986759185791
0.729097723960876465 0.231999993324279785 0.710427343845367432
0.729097723960876465 0.22800000011920929 0.706380665302276611
0.729097723960876465 0.159999996423721313 0.68614727258682251
0.729097723960876465 0.123999997973442078 0.653773844242095947
0.729097723960876465 0.108000002801418304 0.572840213775634766
0.729097723960876465 0.112000003457069397 0.568793535232543945
0.729097723960876465 0.128000006079673767 0.528326749801635742
0.729097723960876465 0.167999997735023499 0.463579893112182617
0.729097723960876465 0.140000000596046448 0.350272864103317261
0.729097723960876465 0.136000007390975952 0.34622618556022644
0.729097723960876465 0.140000000596046448 0.342179477214813232
0.729097723960876465 0.148000001907348633 0.293619334697723389
0.729097723960876465 0.151999995112419128 0.289572656154632568
0.729097723960876465 0.156000003218650818 0.289572656154632568
0.729097723960876465 0.22800000011920929 0.390739649534225464
0.729097723960876465 0.22800000011920929 0.398833006620407104
0.729097723960876465 0.280000001192092896 0.479766607284545898
0.729097723960876465 0.291999995708465576 0.471673250198364258
0.729097723960876465 0.328000009059906006 0.479766607284545898
0.729097723960876465 0.331999987363815308 0.483813285827636719
0.729097723960876465 0.384000003337860107 0.455486536026000977
0.729097723960876465 0.456000000238418579 0.443346470594406128
0.729097723960876465 0.460000008344650269 0.447393149137496948
0.729097723960876465 0.523999989032745361 0.467626571655273438
0.729097723960876465 0.575999975204467773 0.50404667854309082
0.729097723960876465 0.579999983310699463 0.50404667854309082
0.729097723960876465 0.611999988555908203 0.455486536026000977
0.729097723960876465 0.620000004768371582 0.415019720792770386
0.729097723960876465 0.628000020980834961 0.406926363706588745
0.729097723960876465 0.63200002908706665 0.366459578275680542
0.729097723960876465 0.628000020980834961 0.358366221189498901
0.729097723960876465 0.624000012874603271 0.354319542646408081
0.729097723960876465 0.615999996662139893 0.354319542646408081
0.729097723960876465 0.611999988555908203 0.358366221189498901
0.729097723960876465 0.596000015735626221 0.338132798671722412
0.729097723960876465 0.544000029563903809 0.168172270059585571
0.729097723960876465 0.56400001049041748 0.139845505356788635
0.729097723960876465 0.56800001859664917 0.115565426647663116
0.729097723960876465 0.56400001049041748 0.111518748104572296
0.729097723960876465 0.56800001859664917 0.083191990852355957
0.729097723960876465 0.172000005841255188 0.0872386693954467773
0.729097723960876465 0.172000005841255188 0.095332026481628418
0.729097723960876465 0.164000004529953003 0.103425391018390656
0.729097723960876465 0.164000004529953003 0.115565426647663116
0.729097723960876465 0.159999996423721313 0.115565426647663116
0.729097723960876465 0.151999995112419128 0.123658791184425354
0.729097723960876465 0.140000000596046448 0.123658791184425354
0.729097723960876465 0.128000006079673767 0.111518748104572296
0.729097723960876465 0.131999999284744263 0.0872386693954467773
0.729097723960876465 0.128000006079673767 0.156032219529151917
0.729097723960876465 0.131999999284744263 0.160078898072242737
0.729097723960876465 0.128000006079673767 0.188405662775039673
0.729097723960876465 0.119999997317790985 0.188405662775039673
0.729097723960876465 0.112000003457069397 0.180312305688858032
0.729097723960876465 0.112000003457069397 0.164125591516494751
0.729097723960876465 0.119999997317790985 0.156032219529151917
