ply
format ascii 1.0
element vertex 256
property float x
property float y
property float z
end_header
0.270902276039123535 0.722567379474639893 0.991999983787536621
0.270902276039123535 0.730660736560821533 1
0.270902276039123535 0.803500950336456299 0.980000019073486328
0.270902276039123535 0.811594307422637939 0.972000002861022949
0.270902276039123535 0.815641045570373535 0.972000002861022949
0.270902276039123535 0.815641045570373535 0.96799999475479126
0.270902276039123535 0.827781081199645996 0.952000021934509277
0.270902276039123535 0.831827759742736816 0.912000000476837158
0.270902276039123535 0.783267557621002197 0.916000008583068848
0.270902276039123535 0.779220879077911377 0.912000000476837158
0.270902276039123535 0.742800772190093994 0.916000008583068848
0.270902276039123535 0.718520700931549072 0.952000021934509277
0.385451138019561768 0.742800772190093994 0.959999978542327881
0.385451138019561768 0.771127521991729736 0.984000027179718018
0.385451138019561768 0.791360914707183838 0.984000027179718018
0.385451138019561768 0.795407593250274658 0.987999975681304932
0.385451138019561768 0.799454271793365479 0.984000027179718018
0.385451138019561768 0.839921116828918457 0.987999975681304932
0.385451138019561768 0.843967795372009277 0.991999983787536621
0.385451138019561768 0.856107831001281738 0.984000027179718018
0.385451138019561768 0.856107831001281738 0.980000019073486328
0.385451138019561768 0.904667973518371582 0.939999997615814209
0.385451138019561768 0.908714652061462402 0.907999992370605469
0.385451138019561768 0.916808009147644043 0.89999997615814209
0.385451138019561768 0.916808009147644043 0.884000003337860107
0.385451138019561768 0.88443458080291748 0.864000022411346436
0.385451138019561768 0.864201188087463379 0.860000014305114746
0.385451138019561768 0.860154509544372559 0.864000022411346436
0.385451138019561768 0.839921116828918457 0.86799997091293335
0.385451138019561768 0.835874438285827637 0.864000022411346436
0.385451138019561768 0.763034164905548096 0.851999998092651367
0.385451138019561768 0.758987486362457275 0.856000006198883057
0.385451138019561768 0.742800772190093994 0.860000014305114746
0.385451138019561768 0.742800772190093994 0.864000022411346436
0.385451138019561768 0.734707415103912354 0.871999979019165039
0.385451138019561768 0.734707415103912354 0.879999995231628418
0.385451138019561768 0.730660736560821533 0.884000003337860107
0.5 0.083191990852355957 0.052000001072883606
0.5 0.0872386693954467773 0.0560000017285346985
0.5 0.0912853479385375977 0.052000001072883606
0.5 0.107472069561481476 0.052000001072883606
0.5 0.127705469727516174 0.0320000015199184418
0.5 0.131752148270606995 0.0320000015199184418
0.5 0.131752148270606995 0.0280000008642673492
0.5 0.0993787124752998352 0.0160000007599592209
0.5 0.095332026481628418 0.0199999995529651642
0.5 0.083191990852355957 0.0199999995529651642
0.5 0.083191990852355957 0.740000009536743164
0.5 0.0872386693954467773 0.744000017642974854
0.5 0.103425391018390656 0.731999993324279785
0.5 0.115565426647663116 0.731999993324279785
0.5 0.139845505356788635 0.708000004291534424
0.5 0.184358984231948853 0.699999988079071045
0.5 0.208639055490493774 0.684000015258789062
0.5 0.293619334697723389 0.695999979972839355
0.5 0.297666013240814209 0.691999971866607666
0.5 0.410973042249679565 0.688000023365020752
0.5 0.5 0.744000017642974854
0.5 0.665913879871368408 0.772000014781951904
0.5 0.678053915500640869 0.787999987602233887
0.5 0.682100594043731689 0.804000020027160645
0.5 0.718520700931549072 0.839999973773956299
0.5 0.718520700931549072 0.843999981880187988
0.5 0.722567379474639893 0.843999981880187988
0.5 0.742800772190093994 0.86799997091293335
0.5 0.746847450733184814 0.86799997091293335
0.5 0.787314236164093018 0.89999997615814209
0.5 0.860154509544372559 0.916000008583068848
0.5 0.864201188087463379 0.912000000476837158
0.5 0.888481259346008301 0.903999984264373779
0.5 0.908714652061462402 0.871999979019165039
0.5 0.896574616432189941 0.815999984741210938
0.5 0.868247866630554199 0.783999979496002197
0.5 0.864201188087463379 0.783999979496002197
0.5 0.791360914707183838 0.740000009536743164
0.5 0.734707415103912354 0.731999993324279785
0.5 0.730660736560821533 0.736000001430511475
0.5 0.714474022388458252 0.736000001430511475
0.5 0.69424062967300415 0.720000028610229492
0.5 0.69019395112991333 0.712000012397766113
0.5 0.702333986759185791 0.639999985694885254
0.5 0.69019395112991333 0.620000004768371582
0.5 0.678053915500640869 0.579999983310699463
0.5 0.653773844242095947 0.547999978065490723
0.5 0.645680487155914307 0.495999991893768311
0.5 0.649727165699005127 0.492000013589859009
0.5 0.669960558414459229 0.363999992609024048
0.5 0.698287308216094971 0.316000014543533325
0.5 0.706380665302276611 0.231999993324279785
0.5 0.702333986759185791 0.22800000011920929
0.5 0.678053915500640869 0.148000001907348633
0.5 0.653773844242095947 0.119999997317790985
0.5 0.649727165699005127 0.119999997317790985
0.5 0.625447094440460205 0.104000002145767212
0.5 0.5 0.0920000001788139343
0.5 0.49595332145690918 0.0960000008344650269
0.5 0.455486536026000977 0.100000001490116119
0.5 0.451439857482910156 0.0960000008344650269
0.5 0.435253113508224487 0.0920000001788139343
0.5 0.394786328077316284 0.052000001072883606
0.5 0.394786328077316284 0.0480000004172325134
0.5 0.390739649534225464 0.0480000004172325134
0.5 0.382646292448043823 0.0399999991059303284
0.5 0.269339263439178467 0.0280000008642673492
0.5 0.265292584896087646 0.0320000015199184418
0.5 0.249105855822563171 0.0320000015199184418
0.5 0.249105855822563171 0.0359999984502792358
0.5 0.261245906352996826 0.0399999991059303284
0.5 0.419066399335861206 0.151999995112419128
0.5 0.423113077878952026 0.151999995112419128
0.5 0.415019720792770386 0.140000000596046448
0.5 0.415019720792770386 0.136000007390975952
0.5 0.419066399335861206 0.131999999284744263
0.5 0.471673250198364258 0.143999993801116943
0.5 0.483813285827636719 0.156000003218650818
0.5 0.463579893112182617 0.167999997735023499
0.5 0.427159756422042847 0.159999996423721313
0.5 0.475719928741455078 0.203999996185302734
0.5 0.475719928741455078 0.208000004291534424
0.5 0.487859964370727539 0.224000006914138794
0.5 0.50404667854309082 0.287999987602233887
0.5 0.439299792051315308 0.384000003337860107
0.5 0.427159756422042847 0.46399998664855957
0.5 0.423113077878952026 0.46799999475479126
0.5 0.427159756422042847 0.472000002861022949
0.5 0.443346470594406128 0.53600001335144043
0.5 0.467626571655273438 0.56800001859664917
0.5 0.471673250198364258 0.587999999523162842
0.5 0.455486536026000977 0.603999972343444824
0.5 0.427159756422042847 0.607999980449676514
0.5 0.423113077878952026 0.603999972343444824
0.5 0.415019720792770386 0.603999972343444824
0.5 0.410973042249679565 0.607999980449676514
0.5 0.406926363706588745 0.624000012874603271
0.5 0.402879685163497925 0.628000020980834961
0.5 0.184358984231948853 0.675999999046325684
0.5 0.180312305688858032 0.671999990940093994
0.5 0.156032219529151917 0.675999999046325684
0.5 0.156032219529151917 0.680000007152557373
0.5 0.139845505356788635 0.699999988079071045
0.5 0.131752148270606995 0.703999996185302734
0.5 0.107472069561481476 0.703999996185302734
0.5 0.103425391018390656 0.699999988079071045
0.5 0.0912853479385375977 0.708000004291534424
0.5 0.083191990852355957 0.708000004291534424
0.5 0.200545698404312134 0.0359999984502792358
0.5 0.204592376947402954 0.0320000015199184418
0.5 0.220779106020927429 0.0320000015199184418
0.5 0.22482578456401825 0.0280000008642673492
0.5 0.22887246310710907 0.0320000015199184418
0.5 0.23291914165019989 0.0320000015199184418
0.5 0.196499019861221313 0.00400000018998980522
0.5 0.168172270059585571 0
0.5 0.147938862442970276 0.0240000002086162567
0.5 0.143892183899879456 0.0240000002086162567
0.614548861980438232 0.431206434965133667 0.695999979972839355
0.614548861980438232 0.447393149137496948 0.716000020503997803
0.614548861980438232 0.451439857482910156 0.716000020503997803
0.614548861980438232 0.479766607284545898 0.736000001430511475
0.614548861980438232 0.771127521991729736 0.828000009059906006
0.614548861980438232 0.775174200534820557 0.824000000953674316
0.614548861980438232 0.807547628879547119 0.819999992847442627
0.614548861980438232 0.819687724113464355 0.804000020027160645
0.614548861980438232 0.823734402656555176 0.748000025749206543
0.614548861980438232 0.819687724113464355 0.744000017642974854
0.614548861980438232 0.811594307422637939 0.716000020503997803
0.614548861980438232 0.710427343845367432 0.579999983310699463
0.614548861980438232 0.718520700931549072 0.23999999463558197
0.614548861980438232 0.714474022388458252 0.236000001430511475
0.614548861980438232 0.698287308216094971 0.159999996423721313
0.614548861980438232 0.661867201328277588 0.115999996662139893
0.614548861980438232 0.593073606491088867 0.108000002801418304
0.614548861980438232 0.589026927947998047 0.112000003457069397
0.614548861980438232 0.556653499603271484 0.123999997973442078
0.614548861980438232 0.5 0.172000005841255188
0.614548861980438232 0.5 0.175999999046325684
0.614548861980438232 0.487859964370727539 0.192000001668930054
0.614548861980438232 0.49595332145690918 0.275999993085861206
0.614548861980438232 0.427159756422042847 0.372000008821487427
0.614548861980438232 0.406926363706588745 0.444000005722045898
0.729097723960876465 0.083191990852355957 0.624000012874603271
0.729097723960876465 0.0872386693954467773 0.624000012874603271
0.729097723960876465 0.0993787124752998352 0.611999988555908203
0.729097723960876465 0.107472069561481476 0.611999988555908203
0.729097723960876465 0.135798826813697815 0.592000007629394531
0.729097723960876465 0.390739649534225464 0.656000018119812012
0.729097723960876465 0.471673250198364258 0.708000004291534424
0.729097723960876465 0.491906642913818359 0.712000012397766113
0.729097723960876465 0.536420106887817383 0.744000017642974854
0.729097723960876465 0.572840213775634766 0.748000025749206543
0.729097723960876465 0.576886892318725586 0.751999974250793457
0.729097723960876465 0.580933570861816406 0.748000025749206543
0.729097723960876465 0.629493772983551025 0.736000001430511475
0.729097723960876465 0.653773844242095947 0.703999996185302734
0.729097723960876465 0.657820522785186768 0.628000020980834961
0.729097723960876465 0.637587130069732666 0.592000007629394531
0.729097723960876465 0.629493772983551025 0.527999997138977051
0.729097723960876465 0.633540451526641846 0.523999989032745361
0.729097723960876465 0.682100594043731689 0.356000006198883057
0.729097723960876465 0.702333986759185791 0.324000000953674316
0.729097723960876465 0.710427343845367432 0.231999993324279785
0.729097723960876465 0.706380665302276611 0.22800000011920929
0.729097723960876465 0.68614727258682251 0.159999996423721313
0.729097723960876465 0.653773844242095947 0.123999997973442078
0.729097723960876465 0.572840213775634766 0.108000002801418304
0.729097723960876465 0.568793535232543945 0.112000003457069397
0.729097723960876465 0.528326749801635742 0.128000006079673767
0.729097723960876465 0.463579893112182617 0.167999997735023499
0.729097723960876465 0.350272864103317261 0.140000000596046448
0.729097723960876465 0.34622618556022644 0.136000007390975952
0.729097723960876465 0.342179477214813232 0.140000000596046448
0.729097723960876465 0.293619334697723389 0.148000001907348633
0.729097723960876465 0.289572656154632568 0.151999995112419128
0.729097723960876465 0.289572656154632568 0.156000003218650818
0.729097723960876465 0.390739649534225464 0.22800000011920929
0.729097723960876465 0.398833006620407104 0.22800000011920929
0.729097723960876465 0.479766607284545898 0.280000001192092896
0.729097723960876465 0.471673250198364258 0.291999995708465576
0.729097723960876465 0.479766607284545898 0.328000009059906006
0.729097723960876465 0.483813285827636719 0.331999987363815308
0.729097723960876465 0.455486536026000977 0.384000003337860107
0.729097723960876465 0.443346470594406128 0.456000000238418579
0.729097723960876465 0.447393149137496948 0.460000008344650269
0.729097723960876465 0.467626571655273438 0.523999989032745361
0.729097723960876465 0.50404667854309082 0.575999975204467773
0.729097723960876465 0.50404667854309082 0.579999983310699463
0.729097723960876465 0.455486536026000977 0.611999988555908203
0.729097723960876465 0.415019720792770386 0.620000004768371582
0.729097723960876465 0.406926363706588745 0.628000020980834961
0.729097723960876465 0.366459578275680542 0.63200002908706665
0.729097723960876465 0.358366221189498901 0.628000020980834961
0.729097723960876465 0.354319542646408081 0.624000012874603271
0.729097723960876465 0.354319542646408081 0.615999996662139893
0.729097723960876465 0.358366221189498901 0.611999988555908203
0.729097723960876465 0.338132798671722412 0.596000015735626221
0.729097723960876465 0.168172270059585571 0.544000029563903809
0.729097723960876465 0.139845505356788635 0.56400001049041748
0.729097723960876465 0.115565426647663116 0.56800001859664917
0.729097723960876465 0.111518748104572296 0.56400001049041748
0.729097723960876465 0.083191990852355957 0.56800001859664917
0.729097723960876465 0.0872386693954467773 0.172000005841255188
0.729097723960876465 0.095332026481628418 0.172000005841255188
0.729097723960876465 0.103425391018390656 0.164000004529953003
0.729097723960876465 0.115565426647663116 0.164000004529953003
0.729097723960876465 0.115565426647663116 0.159999996423721313
0.729097723960876465 0.123658791184425354 0.151999995112419128
0.729097723960876465 0.123658791184425354 0.140000000596046448
0.729097723960876465 0.111518748104572296 0.128000006079673767
0.729097723960876465 0.0872386693954467773 0.131999999284744263
0.729097723960876465 0.156032219529151917 0.128000006079673767
0.729097723960876465 0.160078898072242737 0.131999999284744263
0.729097723960876465 0.188405662775039673 0.128000006079673767
0.729097723960876465 0.188405662775039673 0.119999997317790985
0.729097723960876465 0.180312305688858032 0.112000003457069397
0.729097723960876465 0.164125591516494751 0.112000003457069397
0.729097723960876465 0.156032219529151917 0.119999997317790985
