ply
format ascii 1.0
element vertex 346
property float x
property float y
property float z
element face 0
property list uchar int vertex_index
end_header
28 119 21
30 126 21
31 126 21
34 129 21
38 129 21
39 130 21
39 133 21
40 134 21
43 134 21
44 133 21
44 130 21
45 129 21
49 129 21
54 123 21
55 117 21
51 111 21
51 112 21
50 113 21
48 113 21
45 116 21
44 115 21
43 111 21
39 111 21
39 115 21
38 116 21
37 116 21
35 114 21
35 113 21
33 113 21
31 111 21
31 112 21
27 117 21
31 74 21
34 76 21
39 77 21
40 78 21
40 86 21
41 87 21
42 77 21
45 75 21
50 75 21
53 71 21
53 64 21
44 63 21
42 61 21
41 56 21
39 54 21
39 53 21
38 54 21
38 61 21
39 62 21
38 63 21
30 64 21
9 6 41
13 10 41
13 11 41
20 12 41
20 2 41
11 1 41
10 2 41
8 2 41
17 124 41
21 129 41
22 129 41
28 133 41
42 137 41
43 136 41
57 132 41
64 126 41
64 125 41
69 117 41
73 75 41
72 74 41
67 48 41
66 48 41
62 45 41
56 46 41
55 45 41
35 46 41
34 45 41
24 46 41
22 45 41
21 44 41
15 49 41
10 73 41
62 12 41
68 12 41
74 5 41
74 2 41
65 1 41
63 2 41
62 3 41
15 123 61
24 130 61
44 134 61
45 133 61
61 129 61
68 121 61
75 82 61
66 68 61
65 68 61
64 67 61
61 51 61
54 45 61
54 39 61
53 38 61
51 38 61
50 43 61
47 45 61
42 45 61
41 46 61
40 45 61
35 45 61
31 40 61
31 38 61
30 38 61
29 39 61
28 45 61
19 56 61
18 67 61
17 68 61
16 68 61
16 69 61
8 81 61
8 86 61
7 87 61
11 110 81
20 121 81
21 125 81
22 125 81
24 128 81
43 133 81
44 132 81
59 128 81
59 127 81
62 124 81
63 119 81
76 101 81
81 76 81
80 75 81
78 65 81
73 59 81
71 58 81
63 55 81
58 49 81
56 48 81
30 47 81
29 48 81
26 48 81
21 52 81
21 53 81
5 64 81
2 70 81
8 102 101
27 126 101
35 129 101
37 131 101
42 132 101
43 131 101
55 126 101
79 93 101
81 77 101
82 76 101
81 75 101
78 62 101
73 56 101
72 56 101
61 48 101
61 47 101
31 45 101
30 46 101
22 47 101
19 51 101
14 53 101
5 61 101
1 72 101
16 110 121
33 128 121
34 128 121
38 131 121
40 131 121
41 132 121
42 131 121
46 130 121
53 125 121
53 124 121
73 97 121
75 74 121
74 73 121
70 63 121
58 52 121
36 49 121
35 50 121
25 52 121
13 62 121
7 77 121
19 114 141
28 126 141
29 126 141
37 132 141
40 132 141
41 133 141
42 132 141
47 131 141
59 121 141
60 118 141
69 103 141
72 84 141
71 83 141
72 82 141
72 81 141
67 74 141
65 66 141
61 60 141
61 59 141
60 59 141
56 55 141
56 54 141
33 52 141
32 53 141
31 53 141
30 52 141
21 60 141
20 63 141
17 67 141
13 79 141
11 81 141
11 98 161
16 106 161
17 110 161
34 131 161
36 132 161
42 133 161
43 132 161
50 130 161
50 129 161
57 123 161
57 122 161
72 96 161
66 55 161
62 52 161
58 53 161
57 54 161
54 51 161
35 52 161
34 51 161
28 51 161
26 53 161
20 52 161
18 54 161
17 54 161
10 85 161
13 8 161
15 10 161
15 12 161
18 14 161
18 16 161
20 18 161
22 16 161
24 3 161
20 3 161
19 2 161
18 3 161
12 3 161
61 17 161
62 18 161
63 17 161
64 17 161
64 15 161
70 7 161
70 3 161
65 3 161
64 2 161
63 3 161
59 3 161
59 4 161
58 5 161
35 133 181
41 137 181
44 136 181
49 130 181
57 90 181
54 85 181
49 58 181
36 57 181
35 58 181
33 58 181
25 91 181
34 143 201
35 143 201
39 146 201
47 144 201
50 140 201
53 114 201
52 113 201
49 99 201
45 93 201
37 93 201
36 96 201
33 100 201
29 117 201
18 156 221
21 156 221
23 154 221
22 151 221
19 152 221
18 153 221
27 132 221
28 133 221
27 134 221
28 135 221
29 144 221
34 149 221
45 150 221
46 149 221
48 149 221
51 146 221
52 146 221
57 123 221
56 122 221
56 116 221
48 108 221
34 108 221
29 114 221
28 114 221
27 115 221
27 116 221
26 117 221
60 155 221
61 156 221
64 156 221
64 153 221
62 151 221
60 151 221
36 130 241
38 132 241
38 133 241
40 133 241
41 134 241
42 133 241
44 133 241
49 125 241
50 115 241
45 111 241
35 112 241
33 114 241
