ply
format ascii 1.0
element vertex 2059
property float x
property float y
property float z
element face 0
property list uchar int vertex_index
end_header
73 115 6
76 118 6
79 118 6
79 113 6
76 110 6
75 111 6
74 111 6
73 112 6
68 114 11
72 117 11
73 116 11
74 116 11
73 111 11
70 109 11
68 109 11
67 110 11
69 75 11
71 75 11
72 74 11
72 71 11
69 71 11
62 115 16
64 117 16
68 118 16
69 117 16
70 117 16
71 113 16
67 107 16
63 108 16
62 112 16
61 113 16
64 75 16
67 74 16
68 73 16
68 72 16
67 71 16
63 71 16
62 72 16
56 75 21
59 77 21
63 76 21
64 70 21
62 70 21
59 67 21
55 67 21
56 113 21
58 115 21
62 115 21
63 114 21
61 106 21
58 104 21
57 104 21
55 106 21
52 76 26
55 76 26
57 74 26
56 70 26
52 66 26
49 66 26
48 67 26
48 70 26
47 71 26
50 112 26
54 115 26
57 115 26
58 114 26
55 106 26
52 103 26
51 104 26
50 104 26
49 105 26
83 146 26
85 146 26
85 141 26
83 139 26
80 142 26
42 71 31
47 75 31
50 75 31
48 66 31
47 65 31
45 65 31
42 68 31
43 109 31
49 114 31
52 112 31
50 103 31
48 101 31
45 101 31
42 104 31
76 143 31
79 146 31
80 146 31
81 145 31
80 140 31
76 140 31
36 108 36
42 113 36
46 113 36
47 112 36
47 105 36
46 100 36
43 98 36
39 98 36
36 101 36
36 103 36
35 104 36
43 76 36
45 76 36
46 75 36
45 64 36
41 63 36
37 67 36
37 69 36
36 70 36
70 144 36
73 147 36
77 147 36
79 144 36
78 143 36
78 141 36
75 138 36
72 138 36
70 140 36
31 104 41
38 113 41
39 113 41
40 114 41
44 111 41
44 104 41
43 100 41
42 99 41
31 98 41
30 99 41
35 73 41
39 76 41
44 76 41
42 63 41
39 63 41
34 69 41
63 145 41
66 147 41
69 147 41
70 146 41
68 139 41
66 137 41
63 137 41
63 138 41
62 139 41
29 108 46
31 110 46
31 111 46
34 112 46
36 110 46
37 100 46
36 99 46
36 97 46
31 96 46
30 97 46
29 97 46
29 98 46
28 99 46
30 74 46
32 76 46
37 75 46
37 68 46
37 65 46
34 63 46
32 63 46
29 67 46
56 144 46
59 146 46
61 146 46
62 145 46
62 138 46
56 137 46
56 139 46
55 140 46
26 105 51
27 108 51
31 112 51
32 112 51
32 105 51
32 100 51
33 99 51
31 96 51
28 97 51
26 99 51
27 71 51
28 74 51
30 76 51
34 75 51
35 74 51
34 65 51
31 63 51
29 63 51
27 65 51
49 142 51
53 146 51
56 145 51
58 143 51
57 139 51
53 135 51
50 136 51
48 138 51
25 107 56
29 111 56
30 111 56
31 104 56
30 103 56
30 97 56
29 96 56
25 99 56
25 102 56
24 103 56
26 74 56
28 76 56
31 75 56
30 65 56
29 64 56
27 64 56
25 66 56
41 140 56
49 146 56
52 146 56
55 143 56
53 137 56
50 134 56
48 134 56
46 136 56
45 136 56
43 134 56
42 134 56
40 136 56
25 75 61
26 76 61
29 76 61
29 69 61
29 65 61
28 64 61
24 65 61
24 66 61
23 67 61
23 106 61
23 107 61
28 111 61
29 110 61
29 103 61
29 97 61
28 96 61
27 97 61
25 97 61
24 98 61
24 99 61
23 100 61
40 143 61
47 144 61
48 143 61
48 139 61
43 133 61
41 132 61
40 132 61
39 133 61
39 134 61
38 135 61
86 178 61
87 177 61
85 174 61
84 174 61
84 176 61
83 177 61
22 74 66
24 76 66
28 76 66
29 66 66
28 65 66
28 64 66
23 65 66
22 69 66
21 70 66
21 106 66
25 110 66
27 110 66
28 109 66
28 102 66
28 98 66
29 97 66
28 96 66
25 96 66
21 101 66
38 142 66
41 144 66
42 143 66
43 143 66
42 133 66
41 132 66
37 132 66
37 133 66
36 134 66
76 176 66
79 178 66
82 178 66
83 177 66
80 174 66
75 174 66
20 74 71
24 77 71
27 77 71
28 68 71
28 65 71
27 64 71
21 65 71
19 71 71
19 105 71
24 110 71
26 110 71
28 108 71
27 101 71
28 100 71
28 97 71
27 96 71
22 97 71
19 102 71
35 139 71
38 142 71
40 142 71
41 138 71
40 137 71
39 131 71
38 130 71
37 131 71
35 131 71
35 132 71
34 133 71
64 3 71
65 2 71
64 1 71
63 1 71
62 2 71
70 175 71
74 179 71
79 179 71
79 176 71
75 173 71
73 173 71
71 171 71
70 172 71
18 74 76
18 75 76
22 78 76
26 78 76
28 76 76
29 67 76
27 64 76
27 63 76
21 63 76
19 65 76
19 67 76
18 68 76
18 106 76
22 110 76
26 110 76
28 107 76
28 100 76
28 96 76
23 95 76
21 96 76
18 100 76
33 134 76
33 137 76
37 141 76
38 141 76
39 140 76
37 129 76
35 129 76
32 132 76
60 7 76
66 6 76
67 5 76
67 3 76
63 2 76
60 5 76
67 176 76
70 178 76
72 178 76
73 179 76
74 178 76
75 178 76
75 176 76
67 170 76
66 171 76
17 107 81
21 111 81
28 110 81
29 106 81
28 105 81
29 96 81
25 93 81
21 94 81
17 99 81
17 101 81
16 102 81
17 72 81
18 77 81
22 80 81
26 80 81
29 77 81
30 64 81
28 62 81
21 61 81
19 62 81
18 63 81
18 65 81
17 66 81
32 137 81
36 140 81
37 140 81
38 139 81
36 128 81
35 127 81
34 127 81
31 130 81
59 10 81
60 11 81
66 9 81
66 6 81
65 5 81
62 5 81
59 8 81
60 173 81
65 177 81
69 177 81
69 174 81
64 169 81
60 169 81
59 170 81
16 106 86
17 109 86
19 111 86
19 112 86
27 113 86
29 111 86
30 103 86
29 102 86
30 96 86
29 94 86
26 92 86
20 93 86
17 97 86
17 99 86
16 100 86
17 71 86
18 76 86
22 80 86
28 78 86
31 66 86
26 62 86
22 61 86
21 62 86
19 62 86
18 63 86
18 64 86
17 65 86
29 134 86
33 138 86
36 138 86
37 134 86
36 133 86
36 126 86
33 126 86
29 130 86
56 171 86
60 176 86
66 176 86
67 175 86
66 174 86
66 172 86
62 167 86
56 168 86
57 14 86
66 13 86
67 9 86
64 6 86
61 6 86
57 10 86
12 77 91
14 79 91
15 78 91
22 78 91
23 78 91
26 75 91
27 69 91
26 68 91
26 66 91
23 63 91
18 63 91
11 72 91
15 106 91
20 110 91
27 111 91
29 109 91
29 102 91
28 95 91
27 94 91
19 95 91
17 98 91
17 100 91
15 102 91
27 133 91
32 137 91
35 137 91
37 135 91
36 123 91
31 124 91
27 130 91
51 169 91
57 173 91
60 173 91
61 172 91
61 170 91
53 164 91
51 164 91
50 165 91
55 15 91
64 16 91
67 14 91
68 14 91
68 11 91
63 7 91
57 8 91
55 10 91
11 79 96
12 80 96
19 78 96
20 79 96
25 79 96
27 76 96
25 63 96
22 60 96
21 61 96
13 64 96
9 69 96
12 110 96
15 112 96
25 110 96
26 109 96
26 102 96
25 98 96
21 94 96
19 94 96
12 100 96
11 102 96
25 132 96
30 136 96
36 136 96
38 133 96
37 126 96
38 125 96
37 121 96
36 120 96
30 121 96
26 126 96
26 128 96
25 129 96
48 166 96
53 170 96
56 170 96
55 167 96
49 161 96
48 161 96
47 162 96
55 14 96
58 16 96
64 15 96
66 13 96
66 12 96
63 10 96
56 11 96
55 12 96
10 78 101
12 80 101
24 78 101
26 78 101
27 75 101
26 74 101
24 62 101
17 61 101
9 66 101
9 68 101
8 69 101
10 105 101
11 112 101
14 113 101
15 112 101
26 110 101
27 103 101
26 102 101
24 94 101
23 93 101
15 94 101
10 99 101
24 132 101
31 137 101
36 136 101
39 133 101
37 120 101
36 119 101
29 120 101
25 125 101
25 127 101
24 128 101
46 165 101
50 168 101
51 167 101
51 165 101
47 159 101
47 158 101
45 158 101
52 18 101
53 19 101
62 18 101
65 18 101
66 17 101
66 13 101
63 10 101
53 11 101
52 12 101
8 73 106
9 77 106
11 79 106
22 77 106
23 76 106
22 64 106
19 62 106
11 63 106
8 67 106
9 104 106
11 112 106
25 109 106
27 106 106
26 105 106
23 95 106
21 93 106
12 94 106
9 97 106
9 101 106
8 102 106
25 131 106
32 136 106
36 135 106
38 133 106
36 124 106
31 120 106
27 120 106
24 123 106
43 163 106
46 165 106
48 165 106
49 166 106
46 156 106
44 154 106
43 154 106
42 155 106
52 19 106
65 18 106
65 17 106
66 16 106
65 15 106
65 13 106
61 10 106
53 12 106
52 13 106
8 76 111
10 78 111
18 76 111
21 73 111
21 70 111
17 65 111
11 63 111
7 68 111
11 110 111
12 111 111
15 111 111
23 105 111
24 103 111
22 98 111
16 93 111
10 94 111
8 98 111
21 129 111
24 132 111
33 131 111
35 128 111
33 119 111
31 117 111
28 117 111
20 123 111
39 158 111
47 164 111
45 152 111
41 149 111
40 149 111
38 151 111
52 19 111
53 20 111
63 18 111
64 17 111
63 13 111
60 11 111
53 13 111
52 14 111
7 73 116
7 76 116
13 77 116
15 76 116
19 73 116
19 71 116
13 64 116
9 64 116
9 65 116
7 67 116
8 102 116
9 106 116
12 109 116
16 108 116
21 103 116
21 100 116
13 93 116
9 94 116
9 95 116
8 96 116
20 130 116
23 133 116
34 131 116
36 128 116
36 123 116
30 116 116
19 119 116
18 120 116
18 121 116
17 122 116
38 157 116
43 161 116
44 161 116
46 158 116
47 154 116
46 153 116
44 146 116
42 144 116
37 145 116
37 146 116
36 147 116
51 22 116
60 21 116
63 17 116
62 14 116
58 13 116
57 12 116
56 13 116
54 13 116
50 18 116
7 76 121
14 76 121
18 72 121
17 69 121
16 69 121
11 64 121
8 64 121
6 72 121
8 104 121
11 107 121
15 106 121
19 102 121
19 99 121
12 93 121
9 93 121
8 94 121
8 96 121
7 97 121
18 127 121
23 132 121
29 131 121
33 128 121
33 123 121
28 117 121
26 116 121
20 117 121
17 120 121
27 147 121
29 149 121
33 150 121
38 155 121
39 159 121
42 160 121
45 158 121
46 158 121
47 152 121
46 150 121
39 144 121
37 144 121
35 142 121
30 142 121
27 145 121
48 25 121
49 26 121
59 24 121
62 21 121
61 15 121
56 13 121
55 14 121
53 14 121
48 19 121
6 73 126
6 74 126
9 76 126
15 75 126
17 73 126
16 69 126
10 64 126
8 64 126
7 65 126
7 66 126
6 67 126
7 101 126
7 103 126
9 105 126
13 105 126
15 103 126
16 103 126
17 98 126
16 96 126
12 93 126
8 93 126
7 94 126
7 98 126
6 99 126
16 124 126
20 128 126
25 127 126
27 124 126
26 118 126
23 117 126
22 116 126
21 117 126
17 117 126
16 118 126
24 147 126
30 152 126
33 152 126
37 155 126
40 155 126
41 156 126
41 157 126
43 155 126
42 154 126
41 149 126
42 148 126
42 146 126
36 139 126
34 138 126
26 140 126
24 142 126
46 26 126
46 27 126
48 29 126
50 29 126
51 30 126
52 29 126
60 27 126
62 25 126
63 20 126
61 17 126
61 16 126
54 14 126
46 20 126
5 73 131
7 75 131
16 74 131
16 73 131
17 72 131
14 67 131
13 67 131
9 64 131
8 64 131
5 68 131
6 100 131
6 101 131
9 104 131
13 103 131
16 100 131
15 95 131
10 92 131
8 92 131
6 94 131
16 125 131
21 126 131
24 123 131
24 118 131
23 118 131
21 116 131
15 116 131
14 117 131
26 150 131
29 152 131
31 152 131
32 153 131
33 152 131
39 151 131
41 149 131
39 142 131
34 138 131
26 139 131
25 140 131
25 141 131
24 142 131
47 27 131
56 28 131
62 27 131
63 22 131
60 17 131
54 15 131
46 21 131
5 97 136
6 101 136
7 102 136
12 102 136
15 99 136
15 95 136
12 92 136
8 91 136
6 92 136
5 93 136
5 94 136
4 95 136
5 73 136
8 75 136
15 74 136
16 73 136
15 68 136
9 64 136
8 64 136
5 68 136
13 121 136
17 124 136
19 124 136
22 121 136
21 116 136
15 114 136
14 115 136
13 115 136
13 116 136
12 117 136
25 147 136
29 151 136
36 150 136
39 147 136
38 144 136
34 139 136
32 138 136
24 139 136
42 28 136
53 30 136
57 30 136
60 25 136
60 22 136
56 19 136
49 19 136
43 19 136
43 22 136
42 23 136
5 99 141
7 101 141
13 100 141
15 97 141
15 94 141
12 91 141
8 90 141
6 91 141
4 93 141
5 73 141
12 75 141
13 74 141
15 74 141
16 73 141
16 69 141
9 64 141
6 65 141
6 66 141
5 67 141
11 118 141
15 122 141
16 122 141
20 118 141
20 115 141
19 114 141
13 113 141
11 115 141
24 145 141
27 148 141
29 148 141
30 149 141
34 146 141
33 140 141
31 138 141
23 137 141
42 32 141
45 34 141
51 33 141
52 34 141
58 33 141
61 28 141
59 22 141
53 18 141
43 19 141
40 23 141
5 99 146
10 100 146
12 99 146
15 96 146
15 93 146
10 89 146
5 90 146
3 94 146
5 72 146
10 75 146
15 74 146
16 73 146
16 69 146
10 64 146
7 64 146
5 66 146
11 119 146
12 120 146
17 119 146
18 118 146
19 114 146
16 112 146
11 112 146
10 113 146
22 141 146
27 146 146
30 146 146
31 145 146
31 139 146
29 137 146
23 135 146
22 136 146
41 33 146
44 35 146
51 35 146
56 34 146
59 31 146
60 25 146
59 24 146
59 22 146
56 19 146
43 21 146
39 27 146
3 96 151
6 99 151
13 98 151
13 97 151
15 95 151
14 90 151
13 89 151
6 88 151
3 91 151
3 93 151
2 94 151
5 69 151
5 72 151
9 75 151
14 75 151
16 73 151
16 67 151
11 64 151
6 64 151
5 65 151
5 66 151
4 67 151
10 117 151
15 118 151
19 114 151
14 110 151
11 110 151
9 112 151
21 137 151
21 139 151
27 144 151
28 144 151
30 141 151
29 137 151
25 134 151
21 134 151
20 135 151
39 32 151
44 36 151
53 35 151
58 30 151
58 25 151
56 23 151
46 22 151
45 23 151
43 23 151
39 28 151
2 95 156
5 99 156
12 98 156
15 95 156
14 88 156
6 85 156
2 90 156
5 72 156
10 76 156
17 74 156
18 70 156
17 69 156
17 67 156
12 63 156
7 63 156
4 66 156
9 115 156
14 116 156
16 115 156
18 113 156
18 112 156
14 108 156
10 108 156
8 110 156
20 136 156
25 141 156
28 141 156
29 138 156
28 136 156
24 131 156
20 131 156
40 35 156
43 38 156
51 37 156
56 31 156
56 29 156
52 24 156
42 26 156
39 29 156
1 93 161
1 95 161
3 97 161
3 98 161
8 99 161
9 98 161
14 97 161
15 96 161
16 88 161
11 84 161
4 83 161
1 87 161
4 71 161
4 72 161
6 74 161
6 75 161
15 77 161
17 76 161
20 71 161
19 70 161
18 66 161
14 62 161
9 61 161
7 62 161
4 65 161
8 113 161
11 115 161
16 114 161
18 112 161
16 107 161
14 105 161
9 105 161
7 107 161
20 134 161
20 135 161
23 138 161
27 138 161
25 129 161
24 128 161
20 128 161
39 38 161
42 41 161
51 39 161
53 37 161
53 30 161
53 28 161
52 27 161
41 29 161
38 33 161
0 86 166
1 96 166
3 98 166
3 99 166
15 96 166
17 94 166
18 88 166
17 87 166
17 86 166
9 83 166
8 82 166
3 82 166
1 84 166
5 75 166
9 78 166
16 79 166
20 75 166
18 64 166
14 60 166
10 59 166
9 60 166
7 60 166
3 65 166
7 112 166
11 115 166
17 113 166
18 112 166
17 103 166
15 101 166
11 101 166
7 106 166
21 135 166
22 135 166
24 137 166
25 137 166
26 136 166
26 129 166
26 127 166
22 123 166
21 123 166
20 124 166
20 126 166
19 127 166
38 42 166
41 45 166
46 45 166
53 36 166
53 32 166
49 29 166
41 31 166
37 36 166
2 74 171
10 80 171
17 81 171
20 78 171
20 75 171
21 74 171
20 73 171
17 61 171
15 59 171
11 58 171
10 59 171
8 59 171
3 63 171
2 65 171
2 66 171
1 67 171
7 90 171
15 96 171
16 96 171
22 91 171
23 91 171
22 95 171
25 99 171
26 99 171
28 101 171
32 102 171
37 96 171
37 94 171
35 92 171
34 88 171
28 84 171
19 92 171
18 93 171
17 93 171
17 92 171
23 83 171
17 75 171
14 76 171
0 88 171
0 90 171
19 131 171
24 135 171
25 135 171
26 126 171
24 118 171
23 117 171
20 117 171
18 120 171
18 122 171
17 123 171
36 42 171
38 50 171
40 52 171
43 52 171
52 39 171
51 34 171
48 32 171
41 33 171
35 40 171
13 95 176
14 95 176
16 92 176
15 91 176
15 90 176
20 84 176
20 80 176
18 78 176
16 78 176
3 88 176
3 90 176
4 77 176
10 79 176
14 82 176
19 81 176
21 79 176
19 69 176
18 68 176
19 67 176
26 67 176
28 67 176
29 66 176
28 58 176
27 57 176
20 57 176
18 57 176
18 64 176
18 65 176
17 66 176
14 61 176
12 60 176
8 61 176
3 67 176
3 69 176
2 70 176
7 112 176
9 114 176
16 114 176
17 115 176
16 119 176
15 120 176
16 121 176
17 128 176
23 133 176
25 133 176
27 119 176
26 115 176
22 112 176
17 112 176
16 111 176
18 109 176
19 102 176
17 100 176
10 102 176
6 108 176
33 49 176
33 51 176
37 56 176
42 57 176
44 56 176
51 45 176
50 36 176
41 35 176
39 36 176
34 40 176
34 42 176
33 43 176
2 92 181
4 99 181
5 99 181
6 100 181
14 95 181
15 95 181
22 90 181
22 89 181
24 87 181
24 85 181
21 83 181
14 83 181
5 82 181
2 86 181
3 73 181
5 75 181
19 77 181
21 75 181
20 70 181
21 69 181
28 69 181
36 68 181
37 67 181
36 61 181
35 60 181
38 57 181
47 58 181
52 52 181
53 47 181
52 46 181
51 41 181
50 41 181
46 38 181
34 40 181
31 49 181
32 50 181
31 56 181
30 57 181
29 56 181
22 56 181
18 56 181
16 58 181
16 61 181
19 63 181
18 64 181
12 65 181
11 64 181
6 65 181
6 66 181
3 70 181
11 109 181
13 111 181
27 109 181
31 108 181
32 107 181
32 106 181
31 105 181
24 105 181
20 105 181
16 102 181
12 103 181
11 104 181
11 106 181
10 107 181
16 123 181
18 128 181
22 131 181
25 131 181
28 119 181
27 118 181
26 114 181
23 112 181
19 113 181
16 117 181
4 99 186
5 100 186
7 100 186
8 99 186
11 101 186
9 103 186
9 110 186
11 115 186
13 117 186
16 117 186
19 121 186
20 126 186
23 128 186
25 128 186
26 127 186
27 121 186
25 118 186
25 114 186
32 110 186
33 110 186
36 106 186
35 105 186
23 104 186
22 104 186
21 103 186
21 100 186
19 98 186
13 98 186
12 97 186
19 93 186
20 93 186
25 87 186
25 86 186
18 81 186
15 81 186
14 80 186
14 79 186
15 78 186
22 78 186
24 76 186
24 72 186
25 71 186
32 71 186
40 70 186
41 69 186
39 56 186
40 54 186
41 53 186
42 54 186
47 53 186
50 50 186
49 45 186
45 41 186
38 41 186
35 42 186
32 47 186
33 51 186
29 55 186
21 56 186
18 59 186
18 60 186
19 61 186
18 62 186
18 64 186
17 65 186
14 62 186
8 64 186
5 67 186
4 74 186
5 75 186
5 76 186
11 77 186
12 78 186
12 79 186
11 80 186
5 81 186
2 86 186
5 89 191
6 97 191
7 98 191
11 98 191
12 99 191
9 101 191
7 108 191
8 109 191
8 111 191
14 116 191
26 113 191
28 111 191
32 110 191
34 108 191
28 103 191
23 103 191
22 102 191
22 100 191
17 95 191
24 89 191
24 86 191
22 84 191
7 81 191
5 83 191
11 69 191
12 70 191
17 70 191
17 66 191
15 64 191
12 64 191
12 66 191
11 67 191
19 75 191
20 76 191
21 75 191
23 75 191
24 74 191
24 72 191
25 71 191
29 71 191
29 70 191
30 69 191
33 71 191
34 70 191
41 70 191
42 69 191
39 58 191
38 57 191
37 53 191
26 56 191
25 57 191
24 57 191
24 58 191
22 60 191
23 63 191
22 64 191
22 70 191
21 71 191
19 71 191
41 47 191
42 47 191
43 46 191
42 45 191
42 44 191
41 45 191
40 45 191
7 94 196
9 96 196
20 93 196
22 90 196
23 90 196
23 86 196
17 79 196
17 78 196
18 77 196
26 75 196
28 72 196
27 68 196
28 67 196
28 66 196
27 67 196
25 65 196
20 65 196
14 70 196
14 74 196
17 76 196
17 77 196
13 80 196
11 80 196
7 84 196
7 86 196
6 87 196
9 111 196
11 113 196
18 112 196
25 105 196
25 104 196
22 102 196
21 99 196
19 97 196
17 97 196
15 99 196
8 100 196
8 101 196
7 102 196
30 60 196
32 62 196
32 64 196
34 66 196
34 67 196
40 67 196
38 61 196
35 57 196
33 56 196
30 57 196
28 59 196
9 94 201
15 95 201
16 94 201
18 94 201
21 91 201
20 84 201
17 80 201
21 77 201
25 76 201
29 71 201
29 68 201
25 64 201
16 65 201
12 68 201
10 75 201
13 76 201
14 77 201
14 79 201
8 84 201
8 87 201
7 88 201
10 104 201
16 108 201
12 112 201
13 116 201
17 119 201
22 119 201
24 116 201
23 111 201
19 107 201
21 105 201
19 98 201
10 100 201
9 101 201
37 117 201
37 116 201
36 116 201
8 77 206
8 79 206
9 80 206
20 79 206
23 76 206
23 69 206
20 66 206
12 68 206
8 72 206
8 74 206
7 75 206
10 92 206
13 94 206
19 95 206
21 97 206
23 97 206
26 93 206
25 89 206
19 88 206
18 87 206
18 85 206
16 83 206
12 83 206
10 85 206
10 87 206
9 88 206
11 114 206
19 120 206
21 120 206
23 118 206
24 107 206
23 106 206
13 104 206
11 105 206
9 107 206
29 122 206
39 119 206
40 114 206
39 113 206
39 112 206
33 111 206
29 119 206
28 120 206
9 80 211
12 82 211
20 80 211
21 73 211
20 72 211
20 69 211
18 67 211
16 67 211
15 66 211
16 65 211
19 65 211
20 60 211
21 59 211
20 58 211
17 58 211
15 60 211
14 60 211
14 61 211
12 63 211
12 65 211
13 65 211
15 67 211
15 69 211
10 73 211
9 75 211
9 76 211
8 77 211
10 97 211
17 102 211
17 103 211
15 105 211
12 105 211
11 111 211
12 113 211
14 115 211
19 116 211
21 114 211
22 110 211
23 109 211
19 104 211
19 102 211
20 101 211
24 100 211
27 97 211
28 90 211
23 85 211
11 89 211
10 90 211
10 91 211
9 92 211
28 118 211
27 119 211
29 122 211
38 120 211
41 116 211
41 114 211
38 111 211
32 112 211
29 116 211
28 115 211
28 114 211
27 114 211
8 71 216
15 71 216
23 72 216
24 64 216
23 63 216
23 58 216
22 57 216
18 56 216
10 62 216
9 64 216
9 65 216
8 66 216
10 99 216
15 103 216
23 101 216
26 98 216
27 92 216
26 91 216
26 89 216
22 86 216
11 89 216
10 90 216
10 91 216
9 92 216
13 80 216
14 81 216
18 81 216
19 80 216
19 78 216
17 76 216
14 76 216
14 77 216
13 78 216
16 112 216
19 112 216
20 111 216
20 108 216
19 107 216
16 107 216
14 109 216
26 116 216
27 117 216
30 117 216
30 115 216
29 114 216
26 114 216
32 119 216
36 119 216
38 116 216
36 114 216
34 114 216
32 116 216
2 78 221
5 91 221
6 92 221
8 92 221
14 84 221
15 85 221
15 86 221
24 85 221
26 83 221
26 76 221
27 67 221
26 66 221
25 59 221
21 56 221
14 57 221
2 72 221
16 94 221
15 95 221
16 104 221
17 105 221
18 105 221
19 104 221
19 102 221
22 99 221
22 95 221
20 93 221
21 92 221
21 90 221
19 88 221
15 88 221
18 114 221
18 113 221
17 113 221
16 114 221
21 115 221
22 116 221
25 116 221
26 115 221
24 113 221
21 113 221
1 77 226
4 93 226
6 95 226
21 97 226
22 96 226
25 96 226
29 92 226
29 85 226
27 73 226
28 72 226
25 58 226
15 56 226
13 57 226
6 64 226
1 71 226
12 114 226
16 117 226
20 116 226
21 115 226
20 111 226
18 109 226
18 106 226
17 105 226
15 107 226
15 109 226
14 110 226
13 110 226
13 111 226
12 112 226
0 78 231
1 79 231
4 93 231
7 95 231
22 96 231
25 96 231
27 94 231
28 86 231
27 85 231
26 71 231
27 66 231
26 65 231
25 59 231
23 57 231
16 56 231
15 57 231
13 57 231
6 64 231
1 71 231
4 110 231
7 113 231
7 114 231
20 117 231
22 115 231
19 107 231
12 101 231
5 102 231
3 104 231
1 78 236
4 91 236
6 93 236
22 95 236
24 93 236
24 86 236
24 80 236
24 74 236
24 68 236
24 62 236
24 59 236
21 57 236
13 58 236
5 65 236
5 66 236
1 72 236
0 110 236
3 115 236
5 116 236
18 117 236
20 117 236
22 115 236
19 106 236
15 101 236
13 100 236
4 101 236
1 104 236
4 87 241
5 89 241
9 92 241
19 93 241
20 92 241
21 92 241
22 83 241
22 77 241
22 71 241
23 61 241
22 60 241
22 59 241
15 59 241
10 61 241
4 66 241
1 73 241
2 114 241
4 116 241
14 117 241
21 116 241
23 113 241
22 112 241
22 110 241
17 103 241
17 102 241
16 102 241
14 100 241
5 101 241
1 107 241
2 76 246
5 86 246
7 88 246
7 89 246
16 90 246
18 90 246
20 88 246
20 81 246
21 70 246
21 64 246
21 63 246
17 60 246
9 62 246
2 70 246
4 114 246
6 116 246
13 116 246
19 116 246
20 116 246
23 113 246
21 106 246
16 101 246
12 100 246
11 101 246
6 102 246
3 107 246
5 84 251
11 89 251
12 88 251
18 87 251
19 86 251
20 76 251
21 66 251
20 65 251
20 63 251
14 61 251
13 62 251
9 63 251
3 70 251
3 72 251
2 73 251
5 112 251
8 114 251
19 116 251
21 115 251
23 112 251
22 106 251
16 101 251
9 102 251
6 106 251
6 108 251
5 109 251
3 77 256
3 80 256
7 85 256
12 87 256
13 88 256
19 84 256
20 77 256
19 76 256
20 66 256
19 64 256
16 62 256
10 63 256
6 66 256
6 67 256
3 71 256
7 110 256
14 115 256
21 114 256
23 112 256
22 105 256
19 102 256
11 103 256
7 108 256
