ply
format ascii 1.0
element vertex 330
property float x
property float y
property float z
element face 0
property list uchar int vertex_index
end_header
12 95 21
18 102 21
19 102 21
28 109 21
34 111 21
36 113 21
38 113 21
44 109 21
47 109 21
60 98 21
60 97 21
65 89 21
66 71 21
65 70 21
63 47 21
60 44 21
57 24 21
54 20 21
54 19 21
53 19 21
50 23 21
49 43 21
45 47 21
44 47 21
44 48 21
40 51 21
34 51 21
25 43 21
26 32 21
25 31 21
22 19 21
21 19 21
16 27 21
14 41 21
15 42 21
15 43 21
11 48 21
8 72 21
0 84 41
1 85 41
6 104 41
17 118 41
18 118 41
27 124 41
33 126 41
35 128 41
39 128 41
45 124 41
53 121 41
60 115 41
60 114 41
70 100 41
74 73 41
73 72 41
67 44 41
58 29 41
56 28 41
46 28 41
45 29 41
44 35 41
40 40 41
34 40 41
29 33 41
29 28 41
16 29 41
11 37 41
10 41 41
7 44 41
1 69 41
12 5 41
19 11 41
28 11 41
29 2 41
15 1 41
14 2 41
11 2 41
46 10 41
47 11 41
56 11 41
63 4 41
63 2 41
50 1 41
49 2 41
45 2 41
7 114 61
17 126 61
18 126 61
24 130 61
36 133 61
37 134 61
38 133 61
54 128 61
63 120 61
63 119 61
68 112 61
73 75 61
72 74 61
66 54 61
57 44 61
55 43 61
30 40 61
29 41 61
17 44 61
7 56 61
1 76 61
0 80 81
1 81 81
9 116 81
17 125 81
18 125 81
26 130 81
36 133 81
37 134 81
38 133 81
54 127 81
62 120 81
62 119 81
67 112 81
74 76 81
73 75 81
66 52 81
61 46 81
61 45 81
60 45 81
49 37 81
30 36 81
29 37 81
19 40 81
5 58 81
1 70 81
0 83 101
1 84 101
5 107 101
18 123 101
19 123 101
25 127 101
40 130 101
41 129 101
53 125 101
61 119 101
61 118 101
69 107 101
74 73 101
73 72 101
69 55 101
61 43 101
60 43 101
53 37 101
28 35 101
27 36 101
18 39 101
12 44 101
12 45 101
5 56 101
1 68 101
0 89 121
1 90 121
6 107 121
13 116 121
13 117 121
14 117 121
23 123 121
41 126 121
42 125 121
55 121 121
62 116 121
62 115 121
71 102 121
74 82 121
73 81 121
66 51 121
57 41 121
54 40 121
52 38 121
29 36 121
28 37 121
22 38 121
10 48 121
9 51 121
5 57 121
1 73 121
6 106 141
17 119 141
18 119 141
22 122 141
43 125 141
44 124 141
56 120 141
70 103 141
74 80 141
73 79 141
67 54 141
60 46 141
59 46 141
53 41 141
30 39 141
29 40 141
21 41 141
10 50 141
10 51 141
4 60 141
1 75 141
7 106 161
9 108 161
10 112 161
19 122 161
43 127 161
44 126 161
55 122 161
68 104 161
72 73 161
71 72 161
67 44 161
65 42 161
65 41 161
64 41 161
61 38 161
58 5 161
57 4 161
51 4 161
42 40 161
39 43 161
35 43 161
29 34 161
23 4 161
17 4 161
13 38 161
10 41 161
9 41 161
2 74 161
13 111 181
22 121 181
43 125 181
44 124 181
52 121 181
64 105 181
68 65 181
67 64 181
62 43 181
57 39 181
50 39 181
50 40 181
45 43 181
32 44 181
31 43 181
25 41 181
24 40 181
24 39 181
17 39 181
12 43 181
6 66 181
15 5 181
20 4 181
21 5 181
24 4 181
24 2 181
15 2 181
14 3 181
50 4 181
53 5 181
54 4 181
59 5 181
60 4 181
60 2 181
50 2 181
18 103 201
26 112 201
42 115 201
54 106 201
54 105 201
58 99 201
62 77 201
61 76 201
55 43 201
52 41 201
46 42 201
45 41 201
26 42 201
25 41 201
20 42 201
19 43 201
12 77 201
21 66 221
20 67 221
25 97 221
30 103 221
44 103 221
52 91 221
54 67 221
53 66 221
54 51 221
52 48 221
49 36 221
50 35 221
51 27 221
24 27 221
23 28 221
25 40 221
24 41 221
20 52 221
18 24 241
21 34 241
23 36 241
28 61 241
25 64 241
24 64 241
24 66 241
27 70 241
29 76 241
39 77 241
40 76 241
45 76 241
46 75 241
48 68 241
50 66 241
50 64 241
49 64 241
46 61 241
51 36 241
56 28 241
57 22 241
56 21 241
56 18 241
52 14 241
28 15 241
27 14 241
22 14 241
18 18 241
18 21 241
17 22 241
