ply
format ascii 1.0
element vertex 760
property float x
property float y
property float z
end_header
0.694806694984436035 0.580711543560028076 0.333942264318466187
0.704989075660705566 0.562994956970214844 0.303961962461471558
0.713499069213867188 0.556638896465301514 0.270713210105895996
0.39964786171913147 0.575133621692657471 0.361185312271118164
0.375298619270324707 0.525431990623474121 0.333878904581069946
0.399716854095458984 0.574602127075195312 0.360066801309585571
0.374844223260879517 0.525115907192230225 0.337051898241043091
0.4679279625415802 0.650105655193328857 0.487196505069732666
0.438285082578659058 0.670314311981201172 0.491768598556518555
0.401963472366333008 0.700984001159667969 0.493929862976074219
0.393669545650482178 0.68942028284072876 0.453040748834609985
0.390791326761245728 0.682968378067016602 0.437703102827072144
0.377550065517425537 0.672124803066253662 0.410994350910186768
0.399291425943374634 0.702466845512390137 0.494286447763442993
0.351759076118469238 0.705176413059234619 0.465090483427047729
0.335740983486175537 0.689664840698242188 0.417412400245666504
0.334671676158905029 0.702534615993499756 0.474382996559143066
0.321877330541610718 0.683125197887420654 0.427463561296463013
0.306808590888977051 0.650805294513702393 0.399568229913711548
0.325884759426116943 0.660262823104858398 0.382661312818527222
0.340075880289077759 0.709575474262237549 0.505319714546203613
0.36397978663444519 0.713738322257995605 0.50112837553024292
0.865477561950683594 0.513250350952148438 0.277946591377258301
0.869555532932281494 0.506266355514526367 0.271621167659759521
0.866572022438049316 0.539238512516021729 0.253318130970001221
0.873512446880340576 0.534063398838043213 0.248507216572761536
0.878646671772003174 0.530754983425140381 0.239392831921577454
0.877273976802825928 0.501514852046966553 0.258398294448852539
0.874473690986633301 0.476808607578277588 0.248639568686485291
0.162683397531509399 0.580718278884887695 0.22918112576007843
0.162291616201400757 0.572335243225097656 0.216184809803962708
0.161407932639122009 0.58026432991027832 0.229103133082389832
0.141619712114334106 0.560739755630493164 0.208247631788253784
0.14759489893913269 0.569525539875030518 0.230643749237060547
0.121361814439296722 0.530754983425140381 0.239373058080673218
0.133435681462287903 0.539238512516021729 0.253298848867416382
0.126495867967605591 0.534063398838043213 0.248487606644630432
0.134529277682304382 0.513250350952148438 0.277927428483963013
0.130451753735542297 0.506266355514526367 0.271601885557174683
0.122733652591705322 0.501514852046966553 0.258378535509109497
0.166034817695617676 0.560201644897460938 0.185106381773948669
0.140173912048339844 0.545706510543823242 0.195149153470993042
0.130678147077560425 0.520630300045013428 0.222404167056083679
0.14224986732006073 0.510100185871124268 0.202023297548294067
0.140963524580001831 0.510070383548736572 0.20466884970664978
0.141372412443161011 0.508356332778930664 0.204727694392204285
0.139983907341957092 0.504415810108184814 0.210290729999542236
0.159495145082473755 0.498451799154281616 0.204833611845970154
0.152509063482284546 0.486934781074523926 0.209639713168144226
0.17409844696521759 0.4849567711353302 0.212787449359893799
0.155947700142860413 0.459713876247406006 0.222404941916465759
0.1705750972032547 0.462702184915542603 0.224985420703887939
0.161751449108123779 0.440084904432296753 0.245541349053382874
0.163081377744674683 0.439013779163360596 0.245096459984779358
0.149836540222167969 0.438341081142425537 0.240603506565093994
0.136682003736495972 0.450913220643997192 0.242132768034934998
0.138057753443717957 0.468891799449920654 0.230325326323509216
0.125534325838088989 0.476808607578277588 0.248619809746742249
0.802134275436401367 0.375150948762893677 0.258466184139251709
0.786400079727172852 0.384629875421524048 0.226137250661849976
0.803220570087432861 0.376588821411132812 0.258777767419815063
0.787577271461486816 0.385979920625686646 0.226450234651565552
0.803264379501342773 0.390613019466400146 0.211286395788192749
0.80145639181137085 0.389442682266235352 0.209649220108985901
0.804638206958770752 0.402265369892120361 0.181812137365341187
0.798419475555419922 0.369324773550033569 0.196471616625785828
0.797516167163848877 0.373217016458511353 0.179968178272247314
0.779443264007568359 0.350804358720779419 0.165988832712173462
0.774315476417541504 0.369647413492202759 0.145736396312713623
0.757248818874359131 0.353363186120986938 0.132978782057762146
0.768093585968017578 0.378398209810256958 0.134741783142089844
0.759298741817474365 0.369649440050125122 0.12483871728181839
0.768320798873901367 0.412550896406173706 0.134394362568855286
0.76048201322555542 0.403159916400909424 0.117173552513122559
0.76026540994644165 0.441168069839477539 0.125905796885490417
0.76104503870010376 0.427308470010757446 0.112622365355491638
0.746439337730407715 0.447752267122268677 0.108633428812026978
0.749672412872314453 0.432730436325073242 0.106357365846633911
0.737604439258575439 0.426142781972885132 0.0950460061430931091
0.729218840599060059 0.399311810731887817 0.0909784808754920959
0.713692247867584229 0.40528029203414917 0.0849286988377571106
0.719003796577453613 0.373458504676818848 0.0905255153775215149
0.707216441631317139 0.390760332345962524 0.0833025872707366943
0.696506202220916748 0.370334744453430176 0.084270477294921875
0.70457690954208374 0.38569602370262146 0.0828236043453216553
0.702485859394073486 0.381698399782180786 0.0827767103910446167
0.702265083789825439 0.384763151407241821 0.0814238786697387695
0.696766972541809082 0.393623113632202148 0.074994303286075592
0.68919837474822998 0.387265771627426147 0.0682047381997108459
0.69979250431060791 0.409868240356445312 0.0729006081819534302
0.685892581939697266 0.414455890655517578 0.0608728043735027313
0.707722365856170654 0.444061070680618286 0.0732071846723556519
0.694428622722625732 0.439172148704528809 0.0592138394713401794
0.705797255039215088 0.463094234466552734 0.0664434507489204407
0.704292654991149902 0.464909881353378296 0.0647272020578384399
0.705278456211090088 0.466511726379394531 0.0650502964854240417
0.70207977294921875 0.481162965297698975 0.0580702759325504303
0.724674105644226074 0.480776935815811157 0.0772081092000007629
0.72216641902923584 0.503524482250213623 0.0764740705490112305
0.723891675472259521 0.506565451622009277 0.0773505568504333496
0.721625983715057373 0.507178366184234619 0.076075427234172821
0.726201355457305908 0.529792428016662598 0.096719786524772644
0.718058466911315918 0.527099728584289551 0.0726341605186462402
0.712270438671112061 0.551517784595489502 0.0647639557719230652
0.711413383483886719 0.518183231353759766 0.0638014897704124451
0.705052495002746582 0.548049986362457275 0.0574025809764862061
0.690056800842285156 0.539962112903594971 0.0466465018689632416
0.686747133731842041 0.55909496545791626 0.0494045168161392212
0.664647459983825684 0.53988879919052124 0.0436982177197933197
0.669233083724975586 0.569685220718383789 0.0551170185208320618
0.652538716793060303 0.54221576452255249 0.046642601490020752
0.653592407703399658 0.576033353805541992 0.0742182433605194092
0.642818748950958252 0.552774965763092041 0.0577073059976100922
0.641289472579956055 0.553985714912414551 0.0573742203414440155
0.635394454002380371 0.545168876647949219 0.0587811097502708435
0.634370803833007812 0.546491801738739014 0.0585159249603748322
0.6335906982421875 0.543489038944244385 0.0571081079542636871
0.621724367141723633 0.539445161819458008 0.0293451696634292603
0.63786923885345459 0.519755303859710693 0.0442421361804008484
0.632807314395904541 0.519314348697662354 0.033907424658536911
0.637841224670410156 0.517922401428222656 0.0455541722476482391
0.628508031368255615 0.496353000402450562 0.042028333991765976
0.636924207210540771 0.504228472709655762 0.0574971027672290802
0.628988444805145264 0.493417918682098389 0.0412393547594547272
0.638111352920532227 0.501964867115020752 0.0580780729651451111
0.639072299003601074 0.484219461679458618 0.0342096611857414246
0.664263308048248291 0.477834731340408325 0.0483053214848041534
0.648817896842956543 0.466746062040328979 0.0293937660753726959
0.667112886905670166 0.476103037595748901 0.0490387268364429474
0.674851536750793457 0.466634869575500488 0.0469641424715518951
0.667734026908874512 0.477417409420013428 0.0491824373602867126
0.682887911796569824 0.477795004844665527 0.0479493662714958191
0.653944194316864014 0.519480645656585693 0.0447584725916385651
0.665659010410308838 0.514347076416015625 0.0423738956451416016
0.665319681167602539 0.479989022016525269 0.0490346774458885193
0.639281570911407471 0.504133820533752441 0.0588803067803382874
0.640520751476287842 0.519849538803100586 0.0450191274285316467
0.72114330530166626 0.506215274333953857 0.0754172354936599731
0.69402468204498291 0.509780287742614746 0.0495818629860877991
0.693062841892242432 0.463841348886489868 0.0559159852564334869
0.721066534519195557 0.504074633121490479 0.0755746439099311829
0.700294971466064453 0.410046994686126709 0.0859341174364089966
0.702164947986602783 0.409679234027862549 0.0873053297400474548
0.726255714893341064 0.444313198328018188 0.0924874991178512573
0.708511233329772949 0.454348772764205933 0.0971889421343803406
0.709928333759307861 0.454342067241668701 0.0986044034361839294
0.745579302310943604 0.451566487550735474 0.111829005181789398
0.7571067214012146 0.456170141696929932 0.151112422347068787
0.707386612892150879 0.464836537837982178 0.0672687366604804993
0.709969937801361084 0.455734282732009888 0.0979812219738960266
0.727164149284362793 0.462642848491668701 0.0840492099523544312
0.752125680446624756 0.458514422178268433 0.106166772544384003
0.759319007396697998 0.476179659366607666 0.0986235588788986206
0.742926836013793945 0.520373642444610596 0.0866314023733139038
0.772472560405731201 0.501533091068267822 0.103807881474494934
0.764372348785400391 0.525399148464202881 0.0942134037613868713
0.778054475784301758 0.499690830707550049 0.108637809753417969
0.786469340324401855 0.507600128650665283 0.113866202533245087
0.78401947021484375 0.47570878267288208 0.118819266557693481
0.800831198692321777 0.508449256420135498 0.133401870727539062
0.794508993625640869 0.485706835985183716 0.130811870098114014
0.801525473594665527 0.506294190883636475 0.15330079197883606
0.792222976684570312 0.479881584644317627 0.145517617464065552
0.789061069488525391 0.480875492095947266 0.155161917209625244
0.758105039596557617 0.457162827253341675 0.151364356279373169
0.758828163146972656 0.456408709287643433 0.152321070432662964
0.769329488277435303 0.418436050415039062 0.146901443600654602
0.767567157745361328 0.418157637119293213 0.145184233784675598
0.771868407726287842 0.386409521102905273 0.150468528270721436
0.769948124885559082 0.386327624320983887 0.148493781685829163
0.745882153511047363 0.453406214714050293 0.111487969756126404
0.778723061084747314 0.459696114063262939 0.130815774202346802
0.727952420711517334 0.529245436191558838 0.0974127277731895447
0.761084020137786865 0.526009857654571533 0.0926900953054428101
0.762443125247955322 0.528270363807678223 0.0927257314324378967
0.765117287635803223 0.527644574642181396 0.0944181904196739197
0.781426429748535156 0.537714064121246338 0.10486409068107605
0.745025575160980225 0.545285344123840332 0.0818187743425369263
0.753168284893035889 0.566672921180725098 0.0941691920161247253
0.728528678417205811 0.576875269412994385 0.0771230906248092651
0.760202527046203613 0.584968030452728271 0.104084871709346771
0.759421646595001221 0.587085127830505371 0.104433514177799225
0.762008130550384521 0.587414383888244629 0.106286346912384033
0.768166959285736084 0.584317266941070557 0.116613894701004028
0.767994105815887451 0.581466019153594971 0.115852609276771545
0.776941657066345215 0.565284550189971924 0.11558263748884201
0.793879568576812744 0.564776301383972168 0.13041745126247406
0.797953367233276367 0.538507759571075439 0.125447675585746765
0.80380558967590332 0.539699137210845947 0.140709176659584045
0.789995670318603516 0.513641834259033203 0.181837677955627441
0.789330720901489258 0.479705810546875 0.156459614634513855
0.802380502223968506 0.470068663358688354 0.153956055641174316
0.7876090407371521 0.439354807138442993 0.146200269460678101
0.809515595436096191 0.464848697185516357 0.158052727580070496
0.812852382659912109 0.421320825815200806 0.174530327320098877
0.823045432567596436 0.47020307183265686 0.174346894025802612
0.83294677734375 0.431645244359970093 0.210229068994522095
0.829685211181640625 0.479753285646438599 0.196492180228233337
0.831878662109375 0.446611672639846802 0.213552951812744141
0.828127443790435791 0.461728334426879883 0.224142700433731079
0.841766834259033203 0.420251697301864624 0.239816993474960327
0.836926817893981934 0.439013779163360596 0.245114222168922424
0.838257074356079102 0.440084904432296753 0.245559230446815491
0.829434216022491455 0.462702184915542603 0.225002706050872803
0.850171983242034912 0.438341081142425537 0.240622043609619141
0.844061791896820068 0.459713876247406006 0.222423002123832703
0.86195141077041626 0.468891799449920654 0.23034416139125824
0.860026419162750244 0.504415810108184814 0.210309743881225586
0.858637809753417969 0.508356332778930664 0.204746708273887634
0.84750133752822876 0.486934781074523926 0.209657907485961914
0.840515196323394775 0.498451799154281616 0.204851657152175903
0.821524381637573242 0.499000757932662964 0.208228141069412231
0.839767575263977051 0.500535249710083008 0.202517196536064148
0.820755124092102051 0.501111388206481934 0.206162765622138977
0.818818271160125732 0.504866480827331543 0.195351585745811462
0.817834258079528809 0.503509700298309326 0.195283696055412292
0.790527284145355225 0.512940049171447754 0.18279653787612915
0.823739111423492432 0.490903913974761963 0.182616084814071655
0.81460648775100708 0.489923864603042603 0.171273276209831238
0.790977895259857178 0.514135599136352539 0.18284982442855835
0.833790242671966553 0.504123568534851074 0.190375581383705139
0.855638265609741211 0.508742928504943848 0.201988548040390015
0.824766218662261963 0.48434138298034668 0.211521804332733154
0.819985151290893555 0.499498844146728516 0.206670865416526794
0.825911641120910645 0.4849567711353302 0.212804436683654785
0.863326549530029297 0.450913220643997192 0.242151767015457153
0.869331419467926025 0.520630300045013428 0.222423627972602844
0.859837055206298828 0.545706510543823242 0.195168003439903259
0.858390688896179199 0.560739755630493164 0.208266451954841614
0.833976686000823975 0.560201644897460938 0.185123980045318604
0.837718307971954346 0.572335243225097656 0.21620255708694458
0.837325751781463623 0.580718278884887695 0.229198887944221497
0.838601350784301758 0.58026432991027832 0.229120880365371704
0.852414071559906006 0.569525539875030518 0.230662122368812561
0.836771905422210693 0.391666382551193237 0.239479407668113708
0.822780251502990723 0.407821238040924072 0.204479187726974487
0.819852173328399658 0.378643006086349487 0.248144090175628662
0.813042044639587402 0.393462091684341431 0.206731453537940979
0.80573505163192749 0.405985981225967407 0.180258870124816895
0.806293070316314697 0.402851790189743042 0.184772863984107971
0.781589269638061523 0.417472511529922485 0.148335099220275879
0.780717611312866211 0.382171005010604858 0.152607262134552002
0.773411810398101807 0.580860435962677002 0.128261908888816833
0.773941636085510254 0.578387081623077393 0.127531617879867554
0.797823250293731689 0.567356526851654053 0.135473772883415222
0.80196911096572876 0.537559032440185547 0.156767934560775757
0.776612401008605957 0.577237308025360107 0.147239983081817627
0.77727121114730835 0.575276851654052734 0.145949259400367737
0.800619423389434814 0.568089008331298828 0.137253925204277039
0.803380608558654785 0.538162708282470703 0.157969415187835693
0.820615530014038086 0.540752053260803223 0.152653515338897705
0.822833001613616943 0.516268610954284668 0.172989383339881897
0.846149265766143799 0.527084767818450928 0.172868087887763977
0.857760608196258545 0.510100185871124268 0.202042117714881897
0.859047234058380127 0.510070383548736572 0.204687684774398804
0.836887121200561523 0.54456937313079834 0.158003196120262146
0.827877640724182129 0.571357548236846924 0.158345937728881836
0.812013983726501465 0.56899106502532959 0.141078382730484009
0.778468191623687744 0.576820135116577148 0.148132845759391785
0.738018929958343506 0.599276363849639893 0.0979762524366378784
0.721804201602935791 0.583272457122802734 0.0841731727123260498
0.699176967144012451 0.596535205841064453 0.0941906869411468506
0.706680357456207275 0.575319528579711914 0.0768627375364303589
0.696664214134216309 0.597816109657287598 0.093303285539150238
0.705243527889251709 0.577178418636322021 0.0767649486660957336
0.68706214427947998 0.600700557231903076 0.0755241885781288147
0.664506733417510986 0.576033353805541992 0.081229083240032196
0.668702900409698486 0.59484398365020752 0.0664535835385322571
0.644816756248474121 0.597209453582763672 0.0572121329605579376
0.664295434951782227 0.627912282943725586 0.0778511911630630493
0.640420734882354736 0.619799435138702393 0.0586305297911167145
0.66433030366897583 0.631008446216583252 0.0798234567046165466
0.632487773895263672 0.643754422664642334 0.067440815269947052
0.653973639011383057 0.655577421188354492 0.0891897976398468018
0.619879961013793945 0.6695212721824646 0.0900813937187194824
0.666899263858795166 0.628542244434356689 0.079575270414352417
0.665608048439025879 0.62685626745223999 0.0782585218548774719
0.672162175178527832 0.629394173622131348 0.0824441090226173401
0.697925150394439697 0.622599363327026367 0.0887950509786605835
0.708213329315185547 0.609230995178222656 0.110023349523544312
0.709954977035522461 0.607722759246826172 0.110370881855487823
0.719431519508361816 0.56350862979888916 0.0732240006327629089
0.703867971897125244 0.575036764144897461 0.0752826929092407227
0.71716994047164917 0.561650991439819336 0.0717423781752586365
0.697241723537445068 0.572196543216705322 0.0601939000189304352
0.681741714477539062 0.574790716171264648 0.0557518564164638519
0.64407271146774292 0.589689731597900391 0.0566764920949935913
0.608911812305450439 0.603798151016235352 0.048517715185880661
0.609953045845031738 0.581546366214752197 0.0423603430390357971
0.586199760437011719 0.59012371301651001 0.0249359793961048126
0.615916907787322998 0.566305279731750488 0.0253599844872951508
0.587510526180267334 0.570792675018310547 0.0181219428777694702
0.61095505952835083 0.539637327194213867 0.0197476111352443695
0.587986528873443604 0.537817895412445068 0.0145341455936431885
0.620299279689788818 0.517407596111297607 0.0208181478083133698
0.580366551876068115 0.512830734252929688 0.00258468044921755791
0.581378817558288574 0.511474132537841797 0.00252958689816296101
0.580909490585327148 0.510001122951507568 0.0022500727791339159
0.628545284271240234 0.503974854946136475 0.0300377737730741501
0.627735376358032227 0.495397031307220459 0.0404154770076274872
0.619694173336029053 0.540767133235931396 0.027878953143954277
0.622231721878051758 0.54250943660736084 0.0298121646046638489
0.639257431030273438 0.562924087047576904 0.040143277496099472
0.727784991264343262 0.530849158763885498 0.0973434150218963623
0.746524631977081299 0.399027317762374878 0.101933218538761139
0.736584186553955078 0.357318788766860962 0.113019749522209167
0.709493935108184814 0.351184159517288208 0.105835430324077606
0.708550751209259033 0.352117031812667847 0.104569315910339355
0.708552002906799316 0.349387377500534058 0.105971828103065491
0.706159770488739014 0.349855750799179077 0.104576930403709412
0.685230135917663574 0.338293850421905518 0.0945738926529884338
0.667959511280059814 0.362211167812347412 0.104430727660655975
0.64745640754699707 0.313565611839294434 0.0840490609407424927
0.666836678981781006 0.362535357475280762 0.102613240480422974
0.646595299243927002 0.314632117748260498 0.0828331038355827332
0.66231691837310791 0.340623944997787476 0.0778139904141426086
0.656928300857543945 0.336178481578826904 0.0668382048606872559
0.655428290367126465 0.367165029048919678 0.0696759223937988281
0.65015864372253418 0.350344836711883545 0.0573667585849761963
0.639001607894897461 0.370918512344360352 0.0518854707479476929
0.641464829444885254 0.350233674049377441 0.050688672810792923
0.618419051170349121 0.354675084352493286 0.0385903380811214447
0.615528881549835205 0.350616723299026489 0.037157643586397171
0.616550028324127197 0.354970782995223999 0.0367161929607391357
0.613776743412017822 0.352170437574386597 0.0355104841291904449
0.632482945919036865 0.387517601251602173 0.0394804105162620544
0.599333703517913818 0.35307079553604126 0.0253169946372509003
0.627898097038269043 0.388797074556350708 0.0273626185953617096
0.595377624034881592 0.36631360650062561 0.0181630775332450867
0.59370887279510498 0.386032372713088989 0.00970811676234006882
0.566153824329376221 0.358249813318252563 0.0155423860996961594
0.564973175525665283 0.385270953178405762 0.00677932426333427429
0.54203343391418457 0.365635931491851807 0.0175665169954299927
0.539727985858917236 0.386155545711517334 0.00770971411839127541
0.515001237392425537 0.391954958438873291 0.0187913812696933746
0.513618171215057373 0.414736926555633545 0.016546914353966713
0.505671203136444092 0.398117154836654663 0.0337714739143848419
0.507941186428070068 0.410666108131408691 0.0275228507816791534
0.50638967752456665 0.412949204444885254 0.0549156889319419861
0.506887972354888916 0.429089069366455078 0.0435977950692176819
0.506781160831451416 0.428906857967376709 0.0455382838845252991
0.507227420806884766 0.429401099681854248 0.0429920628666877747
0.506829261779785156 0.430274814367294312 0.046359524130821228
0.506817281246185303 0.43199002742767334 0.0444207452237606049
0.50673907995223999 0.431770920753479004 0.0455546565353870392
0.5043792724609375 0.475355744361877441 0.0718680471181869507
0.501687586307525635 0.47023308277130127 0.0819073915481567383
0.504663407802581787 0.501318216323852539 0.101118698716163635
0.507017672061920166 0.499006152153015137 0.111205041408538818
0.508307754993438721 0.522916615009307861 0.121277987957000732
0.514263629913330078 0.492243200540542603 0.12294972687959671
0.515771567821502686 0.516669511795043945 0.135363847017288208
0.536836385726928711 0.486292332410812378 0.13268435001373291
0.532995522022247314 0.514887213706970215 0.147957026958465576
0.53316199779510498 0.514297246932983398 0.150032386183738708
0.532863318920135498 0.535452663898468018 0.165543332695960999
0.518700361251831055 0.508746504783630371 0.163497254252433777
0.51890873908996582 0.528784632682800293 0.1780424565076828
0.512986600399017334 0.49470144510269165 0.189837455749511719
0.514074146747589111 0.518208622932434082 0.197546973824501038
0.525126039981842041 0.470866084098815918 0.225177273154258728
0.525210022926330566 0.484920501708984375 0.235938012599945068
0.537605583667755127 0.449173927307128906 0.246655002236366272
0.526919424533843994 0.484770834445953369 0.239120796322822571
0.546819448471069336 0.46753239631652832 0.264485597610473633
0.563646018505096436 0.487366139888763428 0.273365795612335205
0.566127955913543701 0.441777706146240234 0.280140429735183716
0.549946010112762451 0.435164839029312134 0.255669742822647095
0.576431810855865479 0.413530468940734863 0.246744692325592041
0.569405555725097656 0.412465691566467285 0.236459806561470032
0.584810733795166016 0.40320354700088501 0.221139609813690186
0.569672465324401855 0.418387949466705322 0.220627322793006897
0.58960270881652832 0.410027235746383667 0.197032049298286438
0.586983323097229004 0.409842252731323242 0.19640156626701355
0.589054763317108154 0.408487081527709961 0.192011192440986633
0.587067186832427979 0.408079385757446289 0.191781207919120789
0.588802814483642578 0.40301591157913208 0.189807236194610596
0.585037529468536377 0.403279989957809448 0.188841059803962708
0.579627335071563721 0.385223120450973511 0.184777528047561646
0.574541628360748291 0.393370389938354492 0.18482130765914917
0.557167410850524902 0.364515900611877441 0.169309094548225403
0.554774105548858643 0.366436153650283813 0.169419512152671814
0.543764054775238037 0.357930451631546021 0.156392350792884827
0.551198303699493408 0.3727436363697052 0.170779183506965637
0.540334165096282959 0.354144871234893799 0.152928799390792847
0.531210720539093018 0.352818667888641357 0.152818724513053894
0.544782698154449463 0.336477160453796387 0.151202410459518433
0.52728503942489624 0.334358513355255127 0.143171161413192749
0.556709587574005127 0.312224298715591431 0.138977333903312683
0.52942657470703125 0.314718514680862427 0.132077351212501526
0.537684977054595947 0.298510909080505371 0.122226156294345856
0.51884382963180542 0.30212286114692688 0.111964769661426544
0.520966172218322754 0.295314282178878784 0.104565717279911041
0.507344186305999756 0.304885208606719971 0.0976422354578971863
0.513695120811462402 0.295273482799530029 0.0843336954712867737
0.506473183631896973 0.310694247484207153 0.075863957405090332
0.515705227851867676 0.298698693513870239 0.0725089758634567261
0.513954281806945801 0.313820213079452515 0.0612209998071193695
0.525313675403594971 0.293650001287460327 0.0690660029649734497
0.527598202228546143 0.308165937662124634 0.0575828999280929565
0.528734564781188965 0.291910380125045776 0.0727908238768577576
0.537813484668731689 0.299933671951293945 0.0603905506432056427
0.532155096530914307 0.290171056985855103 0.0765154659748077393
0.547725379467010498 0.294193744659423828 0.0672932043671607971
0.532074153423309326 0.286224961280822754 0.0870871841907501221
0.55248337984085083 0.285292863845825195 0.0918121635913848877
0.535619437694549561 0.289681017398834229 0.106912016868591309
0.571267604827880859 0.297320038080215454 0.124786518514156342
0.520989358425140381 0.290539950132369995 0.0907814949750900269
0.605378985404968262 0.402757912874221802 0.228216022253036499
0.594028830528259277 0.402673512697219849 0.240078434348106384
0.623291373252868652 0.406429290771484375 0.254264563322067261
0.608372867107391357 0.407663196325302124 0.2600860595703125
0.59397423267364502 0.423053741455078125 0.276627987623214722
0.633791685104370117 0.412789583206176758 0.253251194953918457
0.608695685863494873 0.394364148378372192 0.223204076290130615
0.635755419731140137 0.410948753356933594 0.251536160707473755
0.61029893159866333 0.391724497079849243 0.222396537661552429
0.638231277465820312 0.393900901079177856 0.24484311044216156
0.616761505603790283 0.377813488245010376 0.22227710485458374
0.647494673728942871 0.369504183530807495 0.232464820146560669
0.620742142200469971 0.376738935708999634 0.21969132125377655
0.64742743968963623 0.370689302682876587 0.226504728198051453
0.647282004356384277 0.369680285453796387 0.223857283592224121
0.668490290641784668 0.365791171789169312 0.224180847406387329
0.668019592761993408 0.352963179349899292 0.214466512203216553
0.695108294486999512 0.367028325796127319 0.222493395209312439
0.683160245418548584 0.350534975528717041 0.20363926887512207
0.696624636650085449 0.366123616695404053 0.223160937428474426
0.685033798217773438 0.348850935697555542 0.203333914279937744
0.683529436588287354 0.329359322786331177 0.203047722578048706
0.659492254257202148 0.318147480487823486 0.175232768058776855
0.698582708835601807 0.309027343988418579 0.187436014413833618
0.669704914093017578 0.301386475563049316 0.164180353283882141
0.719356894493103027 0.303609609603881836 0.169727057218551636
0.682323455810546875 0.293093025684356689 0.146387740969657898
0.705913126468658447 0.300835251808166504 0.161460503935813904
0.691044926643371582 0.300577551126480103 0.129623949527740479
0.714457452297210693 0.307883769273757935 0.142385303974151611
0.693056464195251465 0.322257697582244873 0.103378720581531525
0.714922845363616943 0.334891051054000854 0.111546367406845093
0.734938561916351318 0.317639082670211792 0.145088478922843933
0.729706346988677979 0.311833769083023071 0.164103910326957703
0.731254279613494873 0.313205122947692871 0.161873623728752136
0.732646763324737549 0.312543809413909912 0.164794325828552246
0.733810305595397949 0.314461439847946167 0.163360074162483215
0.746780157089233398 0.328431129455566406 0.17151959240436554
0.754651844501495361 0.3264731764793396 0.162707313895225525
0.766423702239990234 0.343325912952423096 0.184293568134307861
0.774295687675476074 0.341367959976196289 0.175481289625167847
0.780212044715881348 0.362025707960128784 0.20456404983997345
0.786164343357086182 0.385311901569366455 0.22475840151309967
0.779921650886535645 0.360656678676605225 0.206136777997016907
0.766150057315826416 0.342225015163421631 0.186068266630172729
0.746461093425750732 0.32737848162651062 0.173412159085273743
0.801668405532836914 0.357773482799530029 0.2265167236328125
0.788551568984985352 0.342394113540649414 0.205968126654624939
0.767540335655212402 0.320481181144714355 0.18725740909576416
0.750162363052368164 0.310078084468841553 0.178324609994888306
0.741675198078155518 0.300823748111724854 0.191745862364768982
0.717375636100769043 0.314312875270843506 0.211860939860343933
0.738040745258331299 0.31444743275642395 0.232251808047294617
0.698209822177886963 0.335271149873733521 0.227717876434326172
0.708433985710144043 0.340869516134262085 0.247878596186637878
0.705932736396789551 0.363634377717971802 0.247230514883995056
0.761307299137115479 0.305711567401885986 0.219936579465866089
0.77291560173034668 0.310178369283676147 0.199813529849052429
0.800618171691894531 0.330726832151412964 0.231700271368026733
0.792290985584259033 0.326781034469604492 0.215992972254753113
0.695448398590087891 0.367379456758499146 0.224115923047065735
0.668526887893676758 0.366537034511566162 0.226749658584594727
0.668458223342895508 0.363174259662628174 0.235758617520332336
0.681087732315063477 0.362222999334335327 0.239880368113517761
0.704287350177764893 0.365046083927154541 0.247944772243499756
0.75594097375869751 0.332861036062240601 0.155289292335510254
0.7375030517578125 0.342612266540527344 0.120634607970714569
0.506980776786804199 0.429464966058731079 0.0656440407037734985
0.503889977931976318 0.46663627028465271 0.0882338657975196838
0.509256839752197266 0.427866697311401367 0.0743401646614074707
0.511110424995422363 0.459906160831451416 0.099926389753818512
0.526419579982757568 0.426483035087585449 0.0871809273958206177
0.52772819995880127 0.455408394336700439 0.111199289560317993
0.527766644954681396 0.454278528690338135 0.11267949640750885
0.537110090255737305 0.485342442989349365 0.134372726082801819
0.511009514331817627 0.454627037048339844 0.129044681787490845
0.520667850971221924 0.482562839984893799 0.154854997992515564
0.508308053016662598 0.442078530788421631 0.154871672391891479
0.516680002212524414 0.480374902486801147 0.181233018636703491
0.51516491174697876 0.431143373250961304 0.185775488615036011
0.522978007793426514 0.453118771314620972 0.210160419344902039
0.526372373104095459 0.447893649339675903 0.21280224621295929
0.525536537170410156 0.452004045248031616 0.214235439896583557
0.539402961730957031 0.429844260215759277 0.221228525042533875
0.540194153785705566 0.431829601526260376 0.223694249987602234
0.55232006311416626 0.420638948678970337 0.225699231028556824
0.553234875202178955 0.422286868095397949 0.228377655148506165
0.568206131458282471 0.417820841073989868 0.218803763389587402
0.52308887243270874 0.455283969640731812 0.210123822093009949
0.523499488830566406 0.455484837293624878 0.212426647543907166
0.537528336048126221 0.439852625131607056 0.230078056454658508
0.55248558521270752 0.426388382911682129 0.233926653861999512
0.508011281490325928 0.401750296354293823 0.0580965988337993622
0.524835646152496338 0.403794467449188232 0.0746738463640213013
0.527494490146636963 0.378694832324981689 0.0652707815170288086
0.52489316463470459 0.403182834386825562 0.0765542611479759216
0.527459084987640381 0.378085047006607056 0.0674152746796607971
0.51441347599029541 0.376669645309448242 0.0786939263343811035
0.50832599401473999 0.352157056331634521 0.0727609023451805115
0.502380549907684326 0.349794089794158936 0.0871424674987792969
0.503675103187561035 0.328602105379104614 0.0776101350784301758
0.504295170307159424 0.320360332727432251 0.102321580052375793
0.513438045978546143 0.315250426530838013 0.1185198575258255
0.505887508392333984 0.332430779933929443 0.0681491568684577942
0.517899870872497559 0.333613723516464233 0.0523214675486087799
0.541503369808197021 0.329890459775924683 0.045100431889295578
0.557305693626403809 0.315691739320755005 0.0522403493523597717
0.57280433177947998 0.303985655307769775 0.0634749382734298706
0.574249327182769775 0.293379217386245728 0.0971867889165878296
0.602994203567504883 0.313239544630050659 0.0655285045504570007
0.590594887733459473 0.307093232870101929 0.0978954285383224487
0.592943191528320312 0.306885659694671631 0.0979849696159362793
0.589850306510925293 0.304010570049285889 0.117194719612598419
0.597002506256103516 0.293479025363922119 0.118675857782363892
0.602781176567077637 0.3113289475440979 0.139312759041786194
0.605195701122283936 0.303742110729217529 0.140519067645072937
0.625250041484832764 0.32083091139793396 0.151819512248039246
0.630363702774047852 0.308074206113815308 0.154910579323768616
0.65448451042175293 0.331266999244689941 0.174217358231544495
0.641163349151611328 0.294668376445770264 0.145587548613548279
0.649241805076599121 0.288222759962081909 0.129094064235687256
0.620340883731842041 0.285356402397155762 0.119622617959976196
0.623919010162353516 0.29146161675453186 0.102261625230312347
0.601956546306610107 0.295770823955535889 0.0982700586318969727
0.60678708553314209 0.29828980565071106 0.088855154812335968
0.63006359338760376 0.300335407257080078 0.0854811593890190125
0.626853108406066895 0.306492805480957031 0.0735410451889038086
0.643655061721801758 0.310915380716323853 0.0835411176085472107
0.643545031547546387 0.31150740385055542 0.0825859606266021729
0.624404370784759521 0.319802254438400269 0.0528759658336639404
0.618438661098480225 0.339694052934646606 0.0422627069056034088
0.596846818923950195 0.338151544332504272 0.0344363823533058167
0.613816142082214355 0.351078718900680542 0.0363239273428916931
0.570302605628967285 0.339401304721832275 0.0352596305310726166
0.570124447345733643 0.349978148937225342 0.024432862177491188
0.547820389270782471 0.35399898886680603 0.0290913451462984085
0.654105007648468018 0.292658418416976929 0.114404812455177307
0.655952572822570801 0.301705241203308105 0.0954661518335342407
0.645913124084472656 0.311048954725265503 0.0844016000628471375
0.615568101406097412 0.291557997465133667 0.13225005567073822
0.526411175727844238 0.42541465163230896 0.0886368602514266968
0.509507238864898682 0.429566949605941772 0.103318460285663605
0.503702223300933838 0.417666077613830566 0.135375052690505981
0.507142841815948486 0.408517748117446899 0.162496775388717651
0.524252533912658691 0.393682777881622314 0.186032876372337341
0.528684258460998535 0.411551505327224731 0.207980886101722717
0.541634976863861084 0.389286935329437256 0.196505740284919739
0.547559380531311035 0.40116572380065918 0.209745109081268311
0.559853613376617432 0.388443320989608765 0.200130432844161987
0.559551715850830078 0.401015609502792358 0.212464809417724609
0.572400391101837158 0.394556313753128052 0.185933381319046021
0.538561999797821045 0.422317981719970703 0.218623906373977661
0.551720738410949707 0.416001170873641968 0.221262156963348389
0.511388540267944336 0.400803238153457642 0.0866487026214599609
0.503744244575500488 0.395970195531845093 0.117464579641819
0.503181517124176025 0.385253816843032837 0.139075115323066711
0.517077088356018066 0.372609078884124756 0.16119268536567688
0.533536314964294434 0.370772451162338257 0.173708781599998474
0.512630820274353027 0.352772891521453857 0.14447900652885437
0.509820044040679932 0.334156543016433716 0.129865005612373352
0.501949012279510498 0.363227367401123047 0.123779840767383575
0.503714680671691895 0.340730637311935425 0.11320611834526062
0.500851213932037354 0.372756391763687134 0.100017644464969635
0.508979678153991699 0.387675315141677856 0.0342362783849239349
0.512425422668457031 0.379627406597137451 0.0510007068514823914
0.515493154525756836 0.372442185878753662 0.0280416719615459442
0.518400669097900391 0.361334502696990967 0.0348251909017562866
0.527764022350311279 0.354657649993896484 0.0499727167189121246
0.527376890182495117 0.353957861661911011 0.0525808967649936676
0.547482013702392578 0.344280749559402466 0.0385386571288108826
0.547120630741119385 0.341562747955322266 0.0404188930988311768
0.571747660636901855 0.337143778800964355 0.0377227254211902618
0.52998429536819458 0.351452767848968506 0.0506294965744018555
0.52781367301940918 0.352595239877700806 0.0513748899102210999
0.519631266593933105 0.438611865043640137 0.0265754945576190948
0.519158005714416504 0.441577941179275513 0.0268440935760736465
0.533709347248077393 0.438637733459472656 0.00741104362532496452
0.51264876127243042 0.451916217803955078 0.023816550150513649
0.528961718082427979 0.462858051061630249 0.0112018780782818794
0.523954331874847412 0.497775554656982422 0.0159738902002573013
0.545757830142974854 0.5030098557472229 0.00682632438838481903
0.559056222438812256 0.519890189170837402 0.0250068139284849167
0.577969789505004883 0.510786831378936768 0.00185517396312206984
0.57980722188949585 0.509582698345184326 0.00191810086835175753
0.577029287815093994 0.44885629415512085 0.00524769490584731102
0.603395819664001465 0.482720881700515747 0.011520002968609333
0.57917487621307373 0.444724559783935547 0.0146291479468345642
0.604873061180114746 0.47661784291267395 0.0222812071442604065
0.580755054950714111 0.44256514310836792 0.0151856523007154465
0.606314659118652344 0.474903911352157593 0.023066030815243721
0.615577459335327148 0.468225806951522827 0.0181831624358892441
0.653545081615447998 0.374961614608764648 0.0730863437056541443
0.668189644813537598 0.363582849502563477 0.103760361671447754
0.654899477958679199 0.376377195119857788 0.0732630938291549683
0.681236445903778076 0.364588737487792969 0.0902321189641952515
0.663673758506774902 0.376588046550750732 0.0672661066055297852
0.673103988170623779 0.383884459733963013 0.0651661306619644165
0.662403643131256104 0.411260783672332764 0.048593226820230484
0.671492636203765869 0.439269930124282837 0.0487260594964027405
0.705096542835235596 0.352283179759979248 0.103811591863632202
0.637193441390991211 0.38768884539604187 0.0659313127398490906
0.637803375720977783 0.389286786317825317 0.0658724680542945862
0.649293482303619385 0.392660647630691528 0.0518562160432338715
0.641731739044189453 0.405428230762481689 0.0447122156620025635
0.6421966552734375 0.407635301351547241 0.0440021604299545288
0.639899611473083496 0.405648410320281982 0.0432816743850708008
0.641250073909759521 0.408569902181625366 0.0427113249897956848
0.640076637268066406 0.407878518104553223 0.0421442016959190369
0.646748065948486328 0.418822556734085083 0.0349357500672340393
0.635755717754364014 0.412302523851394653 0.0296908393502235413
0.631914734840393066 0.432059288024902344 0.0200957693159580231
0.593146741390228271 0.41642722487449646 0.00526841031387448311
0.626940786838531494 0.456112653017044067 0.0159389935433864594
0.584795176982879639 0.430036872625350952 0.00699966121464967728
0.645911693572998047 0.438126534223556519 0.0301540866494178772
0.63597482442855835 0.389343470335006714 0.0652949139475822449
0.53384023904800415 0.906130135059356689 0.411317437887191772
0.531700730323791504 0.906404733657836914 0.410646975040435791
0.537401139736175537 0.90895235538482666 0.414495259523391724
0.514220058917999268 0.913068711757659912 0.419798880815505981
0.529704511165618896 0.917352557182312012 0.419956296682357788
0.524080634117126465 0.92097395658493042 0.4313792884349823
0.545010685920715332 0.933683276176452637 0.456323057413101196
0.527765572071075439 0.935376644134521484 0.465058416128158569
0.545260906219482422 0.935951888561248779 0.514488756656646729
0.520061016082763672 0.92903447151184082 0.469736218452453613
0.535469353199005127 0.926464498043060303 0.498697549104690552
0.529190182685852051 0.917027533054351807 0.488817662000656128
0.534767866134643555 0.926320672035217285 0.500480115413665771
0.528263509273529053 0.916481137275695801 0.490165650844573975
0.507372081279754639 0.926827907562255859 0.49727165699005127
0.505610048770904541 0.909611821174621582 0.48866349458694458
0.503914892673492432 0.926827907562255859 0.516250014305114746
0.503914892673492432 0.913068711757659912 0.514487683773040771
0.505608797073364258 0.930800557136535645 0.538617491722106934
0.507370829582214355 0.91483074426651001 0.542074322700500488
0.512306153774261475 0.930357754230499268 0.551888644695281982
0.513376057147979736 0.915590167045593262 0.551175355911254883
0.51260143518447876 0.930201232433319092 0.554476916790008545
0.513481497764587402 0.914904654026031494 0.553660988807678223
0.509064853191375732 0.91483074426651001 0.562747359275817871
0.507596313953399658 0.865560948848724365 0.52861475944519043
0.50906527042388916 0.870027899742126465 0.542074322700500488
0.507371306419372559 0.838971257209777832 0.526552677154541016
0.507189571857452393 0.86882317066192627 0.569135367870330811
0.509979367256164551 0.843736946582794189 0.558166444301605225
0.510826706886291504 0.866571187973022461 0.57650679349899292
0.516824662685394287 0.833434462547302246 0.571993768215179443
0.52348935604095459 0.865011811256408691 0.589170098304748535
0.539597630500793457 0.820463299751281738 0.595929443836212158
0.522980809211730957 0.864540219306945801 0.590685665607452393
0.539801478385925293 0.82085883617401123 0.598074138164520264
0.539209306240081787 0.820438921451568604 0.598517298698425293
0.539675474166870117 0.819608628749847412 0.597011804580688477
0.539411067962646484 0.819569587707519531 0.598095118999481201
0.52112811803817749 0.802925229072570801 0.624698936939239502
0.535611987113952637 0.816240370273590088 0.624446988105773926
0.536214113235473633 0.814849495887756348 0.637442827224731445
0.533313155174255371 0.818673849105834961 0.626223504543304443
0.539047658443450928 0.810711562633514404 0.690652191638946533
0.53728872537612915 0.8122672438621521 0.691308438777923584
0.538526654243469238 0.811134457588195801 0.692097723484039307
0.537864327430725098 0.811789453029632568 0.693273663520812988
0.543250322341918945 0.803324103355407715 0.695029973983764648
0.514312565326690674 0.840085744857788086 0.600560367107391357
0.514214277267456055 0.830444216728210449 0.633306980133056641
0.507368326187133789 0.837357938289642334 0.638458132743835449
0.503910541534423828 0.840746879577636719 0.676347136497497559
0.505604386329650879 0.86833345890045166 0.697020113468170166
0.507366597652435303 0.861419856548309326 0.709085285663604736
0.512517333030700684 0.897614598274230957 0.727995932102203369
0.512268781661987305 0.877805829048156738 0.730373680591583252
0.512517333030700684 0.879233360290527344 0.731749892234802246
0.512313187122344971 0.87721550464630127 0.731248617172241211
0.509060442447662354 0.854573965072631836 0.727995932102203369
0.515583634376525879 0.857557356357574463 0.720460176467895508
0.510823190212249756 0.818379402160644531 0.712474226951599121
0.519136548042297363 0.829635381698608398 0.704695224761962891
0.542199909687042236 0.803537487983703613 0.697633028030395508
0.518987357616424561 0.830899238586425781 0.702854394912719727
0.507367074489593506 0.833901107311248779 0.688412308692932129
0.515551388263702393 0.858339071273803711 0.718317210674285889
0.508567631244659424 0.830336809158325195 0.678675949573516846
0.510826230049133301 0.866571187973022461 0.597179830074310303
0.525562703609466553 0.904658317565917969 0.615799903869628906
0.512098133563995361 0.90797954797744751 0.621296167373657227
0.512293398380279541 0.918128788471221924 0.62615889310836792
0.50606614351272583 0.917421817779541016 0.633745253086090088
0.517407834529876709 0.925615787506103516 0.637192308902740479
0.511362552642822266 0.908228814601898193 0.678619086742401123
0.522820889949798584 0.911373913288116455 0.69010692834854126
0.527309775352478027 0.904876887798309326 0.698671936988830566
0.52776038646697998 0.905434250831604004 0.698895871639251709
0.527461767196655273 0.904818415641784668 0.701409220695495605
0.54031902551651001 0.916228115558624268 0.701806485652923584
0.515974640846252441 0.904460370540618896 0.712474346160888672
0.524582505226135254 0.913068711757659912 0.715931355953216553
0.527324259281158447 0.907573699951171875 0.741036474704742432
0.543311059474945068 0.916359543800354004 0.700809478759765625
0.542172670364379883 0.916868865489959717 0.699006378650665283
0.557252883911132812 0.91483074426651001 0.703867316246032715
0.583077967166900635 0.91483074426651001 0.676349103450775146
0.575999855995178223 0.908679425716400146 0.714324891567230225
0.606262505054473877 0.899849772453308105 0.706418514251708984
0.574834525585174561 0.887439608573913574 0.723556697368621826
0.607227146625518799 0.899000108242034912 0.708170175552368164
0.576338887214660645 0.886615276336669922 0.724636733531951904
0.590098798274993896 0.897092640399932861 0.736998319625854492
0.56454092264175415 0.889022290706634521 0.750123560428619385
0.576621770858764648 0.895362973213195801 0.757384061813354492
0.560542523860931396 0.865743458271026611 0.785091221332550049
0.582259893417358398 0.883328020572662354 0.780098915100097656
0.610558807849884033 0.857016444206237793 0.804114639759063721
0.612273335456848145 0.85617983341217041 0.804432272911071777
0.609783649444580078 0.856359362602233887 0.806182980537414551
0.61275094747543335 0.854563295841217041 0.80703657865524292
0.58218836784362793 0.867608904838562012 0.811272799968719482
0.586788356304168701 0.859300613403320312 0.834020674228668213
0.572763979434967041 0.859642446041107178 0.832131385803222656
0.588614404201507568 0.843910694122314453 0.847848176956176758
0.588877379894256592 0.842259347438812256 0.851206421852111816
0.590639472007751465 0.842944979667663574 0.848474204540252686
0.590495586395263672 0.841228306293487549 0.850654780864715576
0.627750515937805176 0.81740415096282959 0.857977390289306641
0.609579205513000488 0.812687337398529053 0.874323904514312744
0.627444982528686523 0.790097951889038086 0.882730484008789062
0.587613165378570557 0.80205690860748291 0.869721293449401855
0.626880884170532227 0.789040207862854004 0.884338736534118652
0.586945950984954834 0.80088651180267334 0.870872139930725098
0.601325750350952148 0.801198780536651611 0.893633425235748291
0.592849791049957275 0.801066696643829346 0.9021148681640625
0.628705382347106934 0.787473976612091064 0.884935379028320312
0.62944328784942627 0.786971688270568848 0.884671807289123535
0.619443058967590332 0.776523292064666748 0.916023790836334229
0.639077723026275635 0.756538093090057373 0.919665098190307617
0.629330873489379883 0.74645000696182251 0.940262973308563232
0.635165870189666748 0.731647908687591553 0.934931337833404541
0.629567980766296387 0.708236336708068848 0.953504383563995361
0.638397455215454102 0.697603046894073486 0.954088032245635986
0.638204813003540039 0.697007656097412109 0.954682767391204834
0.641216456890106201 0.69645380973815918 0.954703688621520996
0.62954246997833252 0.651283621788024902 0.958385705947875977
0.632010042667388916 0.65211641788482666 0.957569599151611328
0.631716370582580566 0.650128841400146484 0.957111895084381104
0.667741477489471436 0.646789729595184326 0.957152903079986572
0.667475402355194092 0.645747721195220947 0.957471132278442383
0.702215433120727539 0.631973087787628174 0.938457489013671875
0.708803296089172363 0.622155368328094482 0.946660637855529785
0.705617725849151611 0.620076596736907959 0.91118931770324707
0.71564948558807373 0.608328163623809814 0.938052773475646973
0.720800817012786865 0.592874228954315186 0.939747214317321777
