ply
format ascii 1.0
element vertex 771
property float x
property float y
property float z
end_header
0.447267413139343262 0.340329349040985107 0.183698594570159912
0.444693595170974731 0.341962367296218872 0.178336441516876221
0.446507364511489868 0.349271208047866821 0.185009703040122986
0.445685356855392456 0.341234743595123291 0.17174723744392395
0.447293281555175781 0.340811729431152344 0.168253645300865173
0.451353132724761963 0.338854432106018066 0.167628586292266846
0.455419063568115234 0.338108628988265991 0.169281229376792908
0.458231508731842041 0.33719480037689209 0.173941925168037415
0.407438904047012329 0.43693116307258606 0.231152325868606567
0.409671783447265625 0.444281190633773804 0.255032241344451904
0.412417680025100708 0.419910460710525513 0.255560129880905151
0.414071857929229736 0.419132500886917114 0.262034028768539429
0.419012516736984253 0.400955021381378174 0.255479395389556885
0.41675800085067749 0.406572729349136353 0.264221221208572388
0.424532085657119751 0.394129544496536255 0.266765385866165161
0.419715702533721924 0.407129347324371338 0.273239195346832275
0.429556369781494141 0.393103510141372681 0.277061223983764648
0.414377003908157349 0.417955249547958374 0.286212384700775146
0.413100957870483398 0.41367676854133606 0.294808954000473022
0.39343753457069397 0.423652440309524536 0.290903806686401367
0.415220081806182861 0.40258026123046875 0.310929328203201294
0.38810238242149353 0.404066324234008789 0.334482550621032715
0.413904011249542236 0.393978238105773926 0.334414482116699219
0.388189911842346191 0.398855805397033691 0.375309944152832031
0.411857247352600098 0.387271761894226074 0.374446570873260498
0.395882338285446167 0.4031410813331604 0.418763637542724609
0.417168855667114258 0.390427857637405396 0.419652938842773438
0.410968124866485596 0.415954470634460449 0.476493775844573975
0.426760196685791016 0.407128393650054932 0.477271914482116699
0.43026500940322876 0.417906910181045532 0.514034628868103027
0.444830596446990967 0.402679473161697388 0.513076722621917725
0.435014158487319946 0.4145965576171875 0.539823472499847412
0.444767773151397705 0.402201235294342041 0.541596293449401855
0.427351713180541992 0.412487953901290894 0.552924156188964844
0.432711303234100342 0.391018152236938477 0.564697802066802979
0.406494051218032837 0.405057698488235474 0.564984261989593506
0.408707976341247559 0.384959518909454346 0.567455768585205078
0.396989673376083374 0.451485753059387207 0.257399648427963257
0.374658703804016113 0.434010714292526245 0.291412144899368286
0.387626618146896362 0.468198925256729126 0.254971921443939209
0.361009329557418823 0.451158314943313599 0.293918222188949585
0.375922977924346924 0.490213155746459961 0.249712288379669189
0.351276487112045288 0.475100904703140259 0.292067825794219971
0.365824848413467407 0.51494985818862915 0.253063052892684937
0.355323821306228638 0.539682686328887939 0.283048450946807861
0.368712157011032104 0.545203030109405518 0.25380358099937439
0.362116754055023193 0.570318818092346191 0.284016549587249756
0.376267105340957642 0.56953805685043335 0.252291709184646606
0.380921840667724609 0.585316598415374756 0.253705352544784546
0.381780147552490234 0.581448018550872803 0.232161432504653931
0.386080920696258545 0.594435751438140869 0.231296628713607788
0.378114581108093262 0.578533709049224854 0.219020679593086243
0.381433337926864624 0.594407439231872559 0.209648251533508301
0.378051847219467163 0.595528662204742432 0.184307008981704712
0.378430664539337158 0.604873538017272949 0.182854950428009033
0.384234875440597534 0.614378213882446289 0.155114144086837769
0.38010329008102417 0.621999502182006836 0.179391324520111084
0.392197996377944946 0.647668421268463135 0.145110532641410828
0.393671184778213501 0.662839055061340332 0.168605715036392212
0.409868746995925903 0.681940734386444092 0.135667696595191956
0.416126251220703125 0.69297868013381958 0.165489077568054199
0.424886554479598999 0.700690686702728271 0.130236998200416565
0.442104816436767578 0.709252893924713135 0.165702983736991882
0.445870637893676758 0.713342726230621338 0.127996742725372314
0.465228676795959473 0.718754768371582031 0.131227046251296997
0.463606119155883789 0.71533203125 0.104110792279243469
0.469634979963302612 0.703361213207244873 0.0886754021048545837
0.5 0.695399582386016846 0.0723052099347114563
0.530365049839019775 0.703361213207244873 0.0886754021048545837
0.528265416622161865 0.694188594818115234 0.0680631399154663086
0.541500866413116455 0.682436704635620117 0.0716072991490364075
0.520274460315704346 0.671377360820770264 0.0704805999994277954
0.52589726448059082 0.663856804370880127 0.0712568610906600952
0.5 0.665809988975524902 0.0808285549283027649
0.5 0.653413534164428711 0.0801654830574989319
0.47410273551940918 0.663856804370880127 0.0712568610906600952
0.469663798809051514 0.652781248092651367 0.0718085542321205139
0.451988548040390015 0.671329140663146973 0.0728860348463058472
0.445069283246994019 0.656032979488372803 0.0757078602910041809
0.432519048452377319 0.665307223796844482 0.0928386971354484558
0.426949471235275269 0.647850990295410156 0.0961022078990936279
0.412777513265609741 0.65647357702255249 0.115001238882541656
0.415166378021240234 0.615528702735900879 0.102136336266994476
0.405599355697631836 0.618367552757263184 0.11963178962469101
0.396129459142684937 0.585794746875762939 0.127660855650901794
0.382776528596878052 0.586889564990997314 0.158484995365142822
0.373927175998687744 0.570816576480865479 0.188826069235801697
0.372164309024810791 0.561894774436950684 0.22744537889957428
0.375086307525634766 0.564308226108551025 0.240610629320144653
0.418233990669250488 0.679154515266418457 0.111811921000480652
0.433967739343643188 0.695098221302032471 0.106003567576408386
0.446881085634231567 0.70729595422744751 0.100580416619777679
0.441460102796554565 0.680651247501373291 0.0893187522888183594
0.450911253690719604 0.693621277809143066 0.0879618749022483826
0.458499133586883545 0.682436704635620117 0.0716072991490364075
0.479725539684295654 0.671377360820770264 0.0704805999994277954
0.471734553575515747 0.694188594818115234 0.0680631399154663086
0.5 0.677751302719116211 0.0704723820090293884
0.462166786193847656 0.716785669326782227 0.16686481237411499
0.458526879549026489 0.709867537021636963 0.221019551157951355
0.422891229391098022 0.697403609752655029 0.217705190181732178
0.4227885901927948 0.696846127510070801 0.240915626287460327
0.398112624883651733 0.674891054630279541 0.234559178352355957
0.405940622091293335 0.692092537879943848 0.274192750453948975
0.393401443958282471 0.675214052200317383 0.260824322700500488
0.399444580078125 0.67605292797088623 0.277128517627716064
0.389788538217544556 0.650069236755371094 0.276997089385986328
0.40934029221534729 0.656139492988586426 0.303232043981552124
0.394350916147232056 0.635722935199737549 0.310713440179824829
0.419786840677261353 0.657294929027557373 0.338496655225753784
0.390249758958816528 0.628291130065917969 0.332897812128067017
0.407018840312957764 0.638237893581390381 0.386797189712524414
0.371102362871170044 0.585895419120788574 0.414656937122344971
0.395991206169128418 0.61719435453414917 0.455975800752639771
0.379882961511611938 0.575895071029663086 0.477319389581680298
0.386453390121459961 0.578384697437286377 0.515621006488800049
0.381936818361282349 0.560693979263305664 0.51452028751373291
0.387746304273605347 0.582238614559173584 0.581765592098236084
0.383954614400863647 0.563493013381958008 0.583579778671264648
0.379407286643981934 0.569122195243835449 0.625007987022399902
0.380695998668670654 0.543858528137207031 0.584664404392242432
0.375950336456298828 0.536705732345581055 0.630761563777923584
0.37871137261390686 0.523841559886932373 0.585028648376464844
0.391603857278823853 0.565988600254058838 0.664615094661712646
0.427129000425338745 0.669636070728302002 0.361088275909423828
0.427128911018371582 0.686496496200561523 0.325525671243667603
0.450781911611557007 0.700611114501953125 0.301905632019042969
0.421521544456481934 0.675320923328399658 0.318868786096572876
0.430539429187774658 0.696515500545501709 0.297526806592941284
0.449323177337646484 0.702494621276855469 0.289952367544174194
0.458463221788406372 0.708112120628356934 0.258629173040390015
0.413554787635803223 0.688790798187255859 0.291268616914749146
0.430856913328170776 0.700498819351196289 0.285371989011764526
0.396431446075439453 0.671839714050292969 0.214483022689819336
0.387864083051681519 0.643764793872833252 0.205840185284614563
0.384728759527206421 0.615568757057189941 0.205630213022232056
0.390539616346359253 0.650584816932678223 0.236065223813056946
0.389042943716049194 0.619627833366394043 0.232879161834716797
0.384198486804962158 0.604922235012054443 0.252626746892929077
0.370529413223266602 0.596945643424987793 0.291092753410339355
0.360493987798690796 0.582600593566894531 0.318378359079360962
0.351263463497161865 0.557800710201263428 0.322534739971160889
0.348302602767944336 0.559165418148040771 0.363880425691604614
0.338927179574966431 0.528169870376586914 0.374291151762008667
0.354154527187347412 0.542275607585906982 0.427418023347854614
0.352263480424880981 0.520451962947845459 0.42895016074180603
0.370103687047958374 0.540018022060394287 0.475176513195037842
0.368787318468093872 0.523978650569915771 0.47761949896812439
0.377941370010375977 0.532318413257598877 0.516059935092926025
0.380970686674118042 0.512505471706390381 0.517636537551879883
0.376370489597320557 0.502738118171691895 0.58641350269317627
0.379720687866210938 0.546094655990600586 0.516668856143951416
0.373513609170913696 0.556197285652160645 0.477309674024581909
0.338159948587417603 0.509202003479003906 0.324820578098297119
0.343627333641052246 0.458732843399047852 0.322544127702713013
0.35673677921295166 0.432667165994644165 0.324070066213607788
0.37041860818862915 0.414089858531951904 0.329806059598922729
0.337091386318206787 0.486248284578323364 0.374601304531097412
0.342433542013168335 0.45450282096862793 0.377328544855117798
0.355990320444107056 0.42772248387336731 0.37903556227684021
0.374279141426086426 0.408022314310073853 0.375491499900817871
0.386873066425323486 0.645780682563781738 0.25968518853187561
0.381380021572113037 0.625786364078521729 0.286415934562683105
0.379911899566650391 0.619362533092498779 0.31577339768409729
0.359502106904983521 0.583952188491821289 0.353642880916595459
0.359031409025192261 0.557658135890960693 0.426216483116149902
0.4014853835105896 0.458141684532165527 0.230013400316238403
0.393319100141525269 0.469656229019165039 0.229371964931488037
0.377666741609573364 0.491635918617248535 0.230964958667755127
0.378587186336517334 0.475951105356216431 0.207727894186973572
0.365289896726608276 0.506051778793334961 0.216221541166305542
0.368340194225311279 0.502030670642852783 0.197523012757301331
0.366392731666564941 0.531624257564544678 0.19447721540927887
0.371729820966720581 0.518856823444366455 0.172013625502586365
0.376429110765457153 0.54935300350189209 0.168405413627624512
0.383571445941925049 0.545068860054016113 0.141162395477294922
0.381524205207824707 0.567326486110687256 0.15883152186870575
0.388458192348480225 0.563479840755462646 0.13416309654712677
0.368150323629379272 0.515615284442901611 0.238922491669654846
0.369225591421127319 0.545625567436218262 0.244011864066123962
0.364814609289169312 0.543800294399261475 0.227984175086021423
0.368701726198196411 0.549490988254547119 0.192692831158638
0.407468199729919434 0.417000353336334229 0.18987119197845459
0.415216714143753052 0.397338688373565674 0.177565276622772217
0.428228020668029785 0.377508670091629028 0.163889676332473755
0.431755810976028442 0.369823634624481201 0.156478956341743469
0.415920495986938477 0.355212271213531494 0.148736938834190369
0.425643652677536011 0.352539241313934326 0.14186432957649231
0.417813152074813843 0.336837172508239746 0.140239253640174866
0.422614514827728271 0.335542529821395874 0.134569853544235229
0.41532588005065918 0.320702999830245972 0.135507509112358093
0.420528531074523926 0.31855696439743042 0.124648861587047577
0.413751572370529175 0.301585763692855835 0.133975043892860413
0.418743282556533813 0.299882560968399048 0.125725090503692627
0.412426203489303589 0.275732249021530151 0.134604305028915405
0.419176250696182251 0.276157766580581665 0.125283583998680115
0.413381695747375488 0.264350801706314087 0.137632504105567932
0.419069111347198486 0.26157456636428833 0.131753668189048767
0.417562305927276611 0.245943933725357056 0.13729017972946167
0.422241300344467163 0.254488050937652588 0.122450552880764008
0.416627198457717896 0.237137198448181152 0.126989170908927917
0.4193001389503479 0.238836944103240967 0.11025034636259079
0.406493663787841797 0.233172103762626648 0.117062240839004517
0.409032464027404785 0.23702104389667511 0.106801740825176239
0.397048830986022949 0.236782059073448181 0.117631010711193085
0.39264291524887085 0.238577738404273987 0.108128346502780914
0.394295573234558105 0.24118901789188385 0.11663808673620224
0.393251895904541016 0.247593134641647339 0.109535291790962219
0.391970962285995483 0.241800576448440552 0.122204005718231201
0.392169266939163208 0.254582464694976807 0.117058426141738892
0.390933334827423096 0.25673443078994751 0.121479935944080353
0.395803719758987427 0.271885424852371216 0.113369762897491455
0.399900555610656738 0.275035887956619263 0.119622401893138885
0.40198826789855957 0.296494871377944946 0.114353030920028687
0.398657917976379395 0.297229737043380737 0.12287883460521698
0.404070734977722168 0.321293503046035767 0.111454203724861145
0.399694770574569702 0.323771685361862183 0.12141137570142746
0.403740376234054565 0.343251347541809082 0.10707748681306839
0.397417277097702026 0.340620428323745728 0.118574991822242737
0.395840674638748169 0.366368144750595093 0.116165652871131897
0.393906354904174805 0.36324736475944519 0.127189666032791138
0.39554440975189209 0.404068917036056519 0.132392987608909607
0.391916871070861816 0.398679643869400024 0.142741695046424866
0.391458809375762939 0.420911788940429688 0.140096694231033325
0.38602137565612793 0.425678879022598267 0.164694741368293762
0.383241862058639526 0.445988595485687256 0.144407138228416443
0.379243075847625732 0.456956595182418823 0.174357771873474121
0.377052128314971924 0.482684105634689331 0.147901907563209534
0.371299982070922852 0.493037581443786621 0.175161004066467285
0.377291619777679443 0.508911967277526855 0.147334977984428406
0.379883646965026855 0.46326524019241333 0.192966490983963013
0.38825070858001709 0.426018804311752319 0.179921776056289673
0.396177619695663452 0.392520636320114136 0.160932451486587524
0.393034547567367554 0.39388701319694519 0.151596203446388245
0.40380445122718811 0.35967668890953064 0.146261334419250488
0.396254509687423706 0.361561596393585205 0.137392640113830566
0.405893981456756592 0.341124564409255981 0.141340389847755432
0.398170739412307739 0.34000551700592041 0.133844435214996338
0.40089261531829834 0.325588822364807129 0.131884455680847168
0.396897345781326294 0.339966177940368652 0.122209459543228149
0.391981571912765503 0.452578812837600708 0.206223860383033752
0.39997178316116333 0.443815082311630249 0.205524221062660217
0.405394941568374634 0.394565582275390625 0.168392017483711243
0.411760836839675903 0.370443791151046753 0.154031023383140564
0.405755817890167236 0.324581831693649292 0.137721434235572815
0.406247109174728394 0.300498157739639282 0.136253029108047485
0.399766206741333008 0.297458857297897339 0.130902528762817383
0.407441765069961548 0.277245312929153442 0.136865824460983276
0.400132536888122559 0.277263104915618896 0.133337646722793579
0.395855307579040527 0.261094391345977783 0.139745384454727173
0.395419090986251831 0.259749293327331543 0.128182679414749146
0.394067108631134033 0.245566681027412415 0.135445758700370789
0.391184955835342407 0.243232414126396179 0.12678779661655426
0.384402066469192505 0.236186400055885315 0.134330391883850098
0.38611215353012085 0.231410413980484009 0.125507831573486328
0.381666690111160278 0.222109511494636536 0.129700601100921631
0.389228224754333496 0.226214945316314697 0.120806336402893066
0.385378420352935791 0.215890854597091675 0.123259343206882477
0.403561532497406006 0.221379131078720093 0.119846262037754059
0.401798784732818604 0.210963219404220581 0.120556727051734924
0.419241845607757568 0.208137556910514832 0.131299138069152832
0.399026840925216675 0.197466164827346802 0.130515530705451965
0.420506775379180908 0.199652522802352905 0.137780427932739258
0.398581594228744507 0.193757027387619019 0.145819440484046936
0.41927143931388855 0.197138145565986633 0.150844961404800415
0.396728932857513428 0.193856894969940186 0.158377379179000854
0.41621863842010498 0.197532922029495239 0.163253903388977051
0.409760922193527222 0.203416422009468079 0.177358835935592651
0.409648329019546509 0.216691240668296814 0.170135125517845154
0.394641876220703125 0.216035455465316772 0.171998977661132812
0.400980889797210693 0.228699550032615662 0.16243705153465271
0.390977650880813599 0.228086471557617188 0.158799901604652405
0.401277989149093628 0.234823793172836304 0.160428240895271301
0.392666399478912354 0.236890926957130432 0.155433759093284607
0.404847443103790283 0.248634889721870422 0.149476796388626099
0.395714759826660156 0.246663793921470642 0.147150188684463501
0.405558198690414429 0.260562300682067871 0.143557950854301453
0.384053707122802734 0.235574096441268921 0.149101734161376953
0.383346438407897949 0.228550001978874207 0.153200984001159668
0.3800029456615448 0.225189864635467529 0.140789628028869629
0.37008291482925415 0.211691677570343018 0.152134224772453308
0.37335696816444397 0.207517102360725403 0.135505408048629761
0.371029406785964966 0.196452289819717407 0.140178278088569641
0.380027174949645996 0.203132152557373047 0.128984585404396057
0.386480122804641724 0.217382356524467468 0.167166903614997864
0.378438681364059448 0.216946303844451904 0.163658440113067627
0.377574950456619263 0.205512106418609619 0.178309917449951172
0.371946573257446289 0.201143622398376465 0.173717111349105835
0.368130385875701904 0.197018250823020935 0.164331749081611633
0.411453574895858765 0.247773528099060059 0.145266696810722351
0.409765422344207764 0.234302729368209839 0.157275676727294922
0.401156097650527954 0.275311559438705444 0.124930359423160553
0.406668394804000854 0.249134987592697144 0.106462009251117706
0.391945391893386841 0.253036975860595703 0.109481483697891235
0.407470792531967163 0.269418150186538696 0.105917870998382568
0.398130804300308228 0.27126842737197876 0.107766516506671906
0.408539056777954102 0.295577794313430786 0.10518375039100647
0.418642342090606689 0.251676380634307861 0.113856077194213867
0.415837764739990234 0.274311810731887817 0.10967748612165451
0.413367331027984619 0.296005666255950928 0.102812811732292175
0.417496800422668457 0.297933965921401978 0.109915517270565033
0.417098879814147949 0.31640547513961792 0.0989826545119285583
0.420760422945022583 0.319082647562026978 0.105932049453258514
0.419123589992523193 0.342852741479873657 0.0940338373184204102
0.425899684429168701 0.343723654747009277 0.0979648232460021973
0.433259367942810059 0.366953164339065552 0.10193229466676712
0.432906150817871094 0.36482664942741394 0.118234321475028992
0.438390493392944336 0.390507251024246216 0.109253108501434326
0.438859552145004272 0.380425781011581421 0.125091031193733215
0.457906037569046021 0.388890117406845093 0.10828949511051178
0.458652615547180176 0.378468453884124756 0.126861140131950378
0.5 0.38791242241859436 0.112486481666564941
0.5 0.380019992589950562 0.127876758575439453
0.541347384452819824 0.378468453884124756 0.126861140131950378
0.5 0.371463149785995483 0.148763358592987061
0.542376220226287842 0.370855718851089478 0.144017159938812256
0.542837142944335938 0.360919207334518433 0.168651476502418518
0.548714935779571533 0.361997365951538086 0.166262432932853699
0.549304068088531494 0.347759217023849487 0.168535530567169189
0.55346602201461792 0.349765658378601074 0.169176280498504639
0.552706718444824219 0.340811729431152344 0.168253645300865173
0.554314613342285156 0.341234743595123291 0.17174723744392395
0.548893332481384277 0.333573669195175171 0.17642328143119812
0.555306434631347656 0.341962367296218872 0.178336441516876221
0.552732586860656738 0.340329349040985107 0.183698594570159912
0.553492605686187744 0.349271208047866821 0.185009703040122986
0.548308372497558594 0.346855252981185913 0.186395183205604553
0.547310769557952881 0.360722541809082031 0.191447243094444275
0.541311681270599365 0.359138369560241699 0.18594709038734436
0.5 0.363031923770904541 0.200866103172302246
0.538771331310272217 0.359598070383071899 0.175389185547828674
0.5 0.364573210477828979 0.171292737126350403
0.458688318729400635 0.359138369560241699 0.18594709038734436
0.452689230442047119 0.360722541809082031 0.191447243094444275
0.451691627502441406 0.346855252981185913 0.186395183205604553
0.454941540956497192 0.362547636032104492 0.203781470656394958
0.457316607236862183 0.362584382295608521 0.217282727360725403
0.465294450521469116 0.359771072864532471 0.220101401209831238
0.454973131418228149 0.348175525665283203 0.220627248287200928
0.460630595684051514 0.346180498600006104 0.222626045346260071
0.455525428056716919 0.339260578155517578 0.220361843705177307
0.461044043302536011 0.337314486503601074 0.22231157124042511
0.456832021474838257 0.334676682949066162 0.229526206851005554
0.464695245027542114 0.338569760322570801 0.227900967001914978
0.462250202894210815 0.339332103729248047 0.235611841082572937
0.464373648166656494 0.347467273473739624 0.228356048464775085
0.461867094039916992 0.348248869180679321 0.236260950565338135
0.470572739839553833 0.361585736274719238 0.228181496262550354
0.467038154602050781 0.362687885761260986 0.239328563213348389
0.5 0.37413942813873291 0.25335383415222168
0.46155017614364624 0.366806745529174805 0.245374754071235657
0.461069613695144653 0.373004704713821411 0.256779968738555908
0.44194328784942627 0.382328689098358154 0.258336365222930908
0.465707719326019287 0.379579842090606689 0.274766415357589722
0.442013442516326904 0.389441639184951782 0.272331595420837402
0.451958566904067993 0.383653104305267334 0.280210405588150024
0.441914737224578857 0.383382707834243774 0.283956348896026611
0.445371001958847046 0.379819393157958984 0.291878938674926758
0.431160539388656616 0.382866799831390381 0.293917268514633179
0.446579277515411377 0.379998534917831421 0.304396837949752808
0.43418729305267334 0.383520692586898804 0.30824357271194458
0.434396892786026001 0.3737507164478302 0.321353673934936523
0.430366963148117065 0.378545463085174561 0.321206897497177124
0.42640984058380127 0.372093170881271362 0.332609325647354126
0.426415473222732544 0.371047884225845337 0.347856849431991577
0.421573519706726074 0.372685104608535767 0.360572278499603271
0.423094898462295532 0.370667070150375366 0.371676534414291382
0.446014046669006348 0.368649452924728394 0.373686909675598145
0.421157687902450562 0.374324828386306763 0.385196089744567871
0.446674823760986328 0.372612237930297852 0.416672945022583008
0.423378407955169678 0.380350708961486816 0.418172836303710938
0.435618817806243896 0.395988434553146362 0.472586214542388916
0.459828615188598633 0.398442745208740234 0.513104557991027832
0.461512446403503418 0.385784000158309937 0.47166857123374939
0.5 0.392776787281036377 0.514493644237518311
0.5 0.38181719183921814 0.468443214893341064
0.538487553596496582 0.385784000158309937 0.47166857123374939
0.536703050136566162 0.369021832942962646 0.414898604154586792
0.553325176239013672 0.372612237930297852 0.416672945022583008
0.553985953330993652 0.368649452924728394 0.373686909675598145
0.578842282295227051 0.374324828386306763 0.385196089744567871
0.57690507173538208 0.370667070150375366 0.371676534414291382
0.578426480293273926 0.372685104608535767 0.360572278499603271
0.573584496974945068 0.371047884225845337 0.347856849431991577
0.57359015941619873 0.372093170881271362 0.332609325647354126
0.547754764556884766 0.370310425758361816 0.332103192806243896
0.565603137016296387 0.3737507164478302 0.321353673934936523
0.545292675495147705 0.372453004121780396 0.319523334503173828
0.553420722484588623 0.379998534917831421 0.304396837949752808
0.546364784240722656 0.378417134284973145 0.300723791122436523
0.554628968238830566 0.379819393157958984 0.291878938674926758
0.543125450611114502 0.379483312368392944 0.29099622368812561
0.548041403293609619 0.383653104305267334 0.280210405588150024
0.534292280673980713 0.379579842090606689 0.274766415357589722
0.557986557483673096 0.389441639184951782 0.272331595420837402
0.55805671215057373 0.382328689098358154 0.258336365222930908
0.574345052242279053 0.393570542335510254 0.255354344844818115
0.562887012958526611 0.3757457435131073 0.230609148740768433
0.579406857490539551 0.392405271530151367 0.229411497712135315
0.563396275043487549 0.374066203832626343 0.20861758291721344
0.584188699722290039 0.394425690174102783 0.212747454643249512
0.584951043128967285 0.393289327621459961 0.194185465574264526
0.592566847801208496 0.414190858602523804 0.201860755681991577
0.592531800270080566 0.417000353336334229 0.18987119197845459
0.46329692006111145 0.369021832942962646 0.414898604154586792
0.462848544120788574 0.364858537912368774 0.375529110431671143
0.5 0.366943955421447754 0.410834223031997681
0.5 0.363830089569091797 0.374903768301010132
0.537151455879211426 0.364858537912368774 0.375529110431671143
0.5 0.367188781499862671 0.334149152040481567
0.535680949687957764 0.367471247911453247 0.332568645477294922
0.533591091632843018 0.377461463212966919 0.292929500341415405
0.5 0.376947283744812012 0.292046099901199341
0.464319050312042236 0.367471247911453247 0.332568645477294922
0.452245235443115234 0.370310425758361816 0.332103192806243896
0.454707354307174683 0.372453004121780396 0.319523334503173828
0.453635245561599731 0.378417134284973145 0.300723791122436523
0.456874549388885498 0.379483312368392944 0.29099622368812561
0.458394736051559448 0.395250111818313599 0.542827606201171875
0.5 0.393915444612503052 0.549150228500366211
0.440330386161804199 0.389230519533157349 0.578874826431274414
0.442365318536758423 0.3897419273853302 0.590491354465484619
0.436412960290908813 0.38115847110748291 0.592321336269378662
0.437497615814208984 0.374592900276184082 0.616408884525299072
0.421020776033401489 0.375561416149139404 0.622270345687866211
0.42199176549911499 0.345701664686203003 0.621752142906188965
0.5 0.37811926007270813 0.271527290344238281
0.538930356502532959 0.373004704713821411 0.256779968738555908
0.466408908367156982 0.377461463212966919 0.292929500341415405
0.5 0.365858465433120728 0.225290253758430481
0.529427289962768555 0.361585736274719238 0.228181496262550354
0.532961845397949219 0.362687885761260986 0.239328563213348389
0.53844982385635376 0.366806745529174805 0.245374754071235657
0.542024612426757812 0.351169824600219727 0.240548491477966309
0.546813428401947021 0.366816431283950806 0.240312293171882629
0.547955632209777832 0.351176619529724121 0.236958488821983337
0.552458524703979492 0.352304160594940186 0.230765312910079956
0.551723957061767578 0.343287825584411621 0.230251133441925049
0.548904895782470703 0.348672479391098022 0.224034219980239868
0.54825747013092041 0.339745372533798218 0.223685204982757568
0.545026838779449463 0.348175525665283203 0.220627248287200928
0.544474542140960693 0.339260578155517578 0.220361843705177307
0.539369404315948486 0.346180498600006104 0.222626045346260071
0.538955926895141602 0.337314486503601074 0.22231157124042511
0.535304725170135498 0.338569760322570801 0.227900967001914978
0.543168008327484131 0.334676682949066162 0.229526206851005554
0.537749826908111572 0.339332103729248047 0.235611841082572937
0.541546046733856201 0.34218132495880127 0.239794284105300903
0.538132905960083008 0.348248869180679321 0.236260950565338135
0.535626351833343506 0.347467273473739624 0.228356048464775085
0.534705519676208496 0.359771072864532471 0.220101401209831238
0.54505842924118042 0.362547636032104492 0.203781470656394958
0.554621338844299316 0.364129513502120972 0.189493551850318909
0.569099962711334229 0.377318620681762695 0.185461938381195068
0.558342158794403076 0.36649012565612793 0.181741878390312195
0.571771979331970215 0.377508670091629028 0.163889676332473755
0.55690842866897583 0.365438312292098999 0.172216445207595825
0.554583907127380371 0.364826768636703491 0.167166024446487427
0.555114448070526123 0.350199401378631592 0.172757700085639954
0.556131184101104736 0.350945174694061279 0.179512634873390198
0.562780261039733887 0.373552024364471436 0.137641012668609619
0.584783256053924561 0.397338688373565674 0.177565276622772217
0.594605088233947754 0.394565582275390625 0.168392017483711243
0.588239192962646484 0.370443791151046753 0.154031023383140564
0.60382235050201416 0.392520636320114136 0.160932451486587524
0.596195578575134277 0.35967668890953064 0.146261334419250488
0.606965422630310059 0.39388701319694519 0.151596203446388245
0.603745460510253906 0.361561596393585205 0.137392640113830566
0.608083128929138184 0.398679643869400024 0.142741695046424866
0.606093645095825195 0.36324736475944519 0.127189666032791138
0.60445559024810791 0.404068917036056519 0.132392987608909607
0.604159295558929443 0.366368144750595093 0.116165652871131897
0.59226524829864502 0.407159328460693359 0.12034568190574646
0.593415558338165283 0.368522107601165771 0.104160010814666748
0.588245391845703125 0.395122647285461426 0.105682417750358582
0.586471736431121826 0.373442292213439941 0.0914709046483039856
0.585032820701599121 0.399797022342681885 0.103394597768783569
0.573006272315979004 0.373283237218856812 0.0907048061490058899
0.564426064491271973 0.39971497654914856 0.101358570158481598
0.561609506607055664 0.390507251024246216 0.109253108501434326
0.542093932628631592 0.388890117406845093 0.10828949511051178
0.56114041805267334 0.380425781011581421 0.125091031193733215
0.538910388946533203 0.399897575378417969 0.0961085334420204163
0.5 0.398911744356155396 0.098444424569606781
0.53619617223739624 0.415043145418167114 0.0850222781300544739
0.5 0.411147832870483398 0.0884457007050514221
0.531961202621459961 0.432837098836898804 0.0771979242563247681
0.5 0.432612478733062744 0.0761453434824943542
0.53067326545715332 0.450543224811553955 0.0727042108774185181
0.5 0.453259140253067017 0.073443874716758728
0.53166663646697998 0.472144573926925659 0.0736539438366889954
0.5 0.472985446453094482 0.0739404186606407166
0.53241044282913208 0.508453130722045898 0.0793962329626083374
0.5 0.507888495922088623 0.0773839503526687622
0.5 0.536996364593505859 0.0825429484248161316
0.46758955717086792 0.508453130722045898 0.0793962329626083374
0.466980427503585815 0.536247372627258301 0.0838374868035316467
0.459167361259460449 0.508834540843963623 0.0813738405704498291
0.458136707544326782 0.535681962966918945 0.087718568742275238
0.446300148963928223 0.511596798896789551 0.0880003646016120911
0.447682708501815796 0.534511923789978027 0.09336119145154953
0.435747802257537842 0.512418031692504883 0.0986391976475715637
0.429938971996307373 0.5299416184425354 0.0945606455206871033
0.428527235984802246 0.509115040302276611 0.0995044708251953125
0.408808201551437378 0.531138777732849121 0.103449836373329163
0.405767887830734253 0.501378715038299561 0.110632948577404022
0.388699978590011597 0.508033215999603271 0.128755271434783936
0.402765274047851562 0.476529508829116821 0.116096414625644684
0.39083784818649292 0.478031039237976074 0.129220426082611084
0.398025393486022949 0.44637608528137207 0.126750662922859192
0.423984706401824951 0.472011566162109375 0.111273996531963348
0.430280894041061401 0.472920060157775879 0.0964780300855636597
0.43781694769859314 0.471913695335388184 0.0838614106178283691
0.457268357276916504 0.471713483333587646 0.0746904239058494568
0.46833336353302002 0.472144573926925659 0.0736539438366889954
0.469326764345169067 0.450543224811553955 0.0727042108774185181
0.468038827180862427 0.432837098836898804 0.0771979242563247681
0.46380382776260376 0.415043145418167114 0.0850222781300544739
0.461089611053466797 0.399897575378417969 0.0961085334420204163
0.445590764284133911 0.414610922336578369 0.0873163342475891113
0.435573935508728027 0.39971497654914856 0.101358570158481598
0.430620908737182617 0.411237657070159912 0.106271661818027496
0.414967209100723267 0.399797022342681885 0.103394597768783569
0.415164530277252197 0.41130182147026062 0.10781562328338623
0.407734781503677368 0.407159328460693359 0.12034568190574646
0.412360519170761108 0.429271012544631958 0.111866503953933716
0.404152780771255493 0.421396404504776001 0.124055415391921997
0.406584441661834717 0.368522107601165771 0.104160010814666748
0.411754608154296875 0.395122647285461426 0.105682417750358582
0.413528293371200562 0.373442292213439941 0.0914709046483039856
0.426993727684020996 0.373283237218856812 0.0907048061490058899
0.410764008760452271 0.343099594116210938 0.095162518322467804
0.409004688262939453 0.321238934993743896 0.101154230535030365
0.455505043268203735 0.449615776538848877 0.0744907855987548828
0.45158812403678894 0.431138902902603149 0.0780028775334358215
0.435347288846969604 0.447700679302215576 0.0857642292976379395
0.433714389801025391 0.428955048322677612 0.0912718400359153748
0.426635533571243286 0.449205011129379272 0.104408770799636841
0.424874782562255859 0.43073350191116333 0.111648201942443848
0.407924354076385498 0.448226451873779297 0.115640550851821899
0.421498090028762817 0.451211154460906982 0.114384710788726807
0.554409265518188477 0.414610922336578369 0.0873163342475891113
0.548411905765533447 0.431138902902603149 0.0780028775334358215
0.544494986534118652 0.449615776538848877 0.0744907855987548828
0.542731642723083496 0.471713483333587646 0.0746904239058494568
0.584835469722747803 0.41130182147026062 0.10781562328338623
0.569379091262817383 0.411237657070159912 0.106271661818027496
0.575125217437744141 0.43073350191116333 0.111648201942443848
0.566285610198974609 0.428955048322677612 0.0912718400359153748
0.573364496231079102 0.449205011129379272 0.104408770799636841
0.564652740955352783 0.447700679302215576 0.0857642292976379395
0.569719135761260986 0.472920060157775879 0.0964780300855636597
0.562183082103729248 0.471913695335388184 0.0838614106178283691
0.553699851036071777 0.511596798896789551 0.0880003646016120911
0.540832638740539551 0.508834540843963623 0.0813738405704498291
0.533019542694091797 0.536247372627258301 0.0838374868035316467
0.532409071922302246 0.560328483581542969 0.0871721506118774414
0.5 0.563029110431671143 0.0855535939335823059
0.530831336975097656 0.584349095821380615 0.0870536044239997864
0.5 0.586730360984802246 0.0863016769289970398
0.5 0.604905486106872559 0.0841484740376472473
0.469168663024902344 0.584349095821380615 0.0870536044239997864
0.473129838705062866 0.609493434429168701 0.0851483866572380066
0.45975881814956665 0.609122872352600098 0.0779920518398284912
0.472376078367233276 0.622211933135986328 0.0830784589052200317
0.464500993490219116 0.631321251392364502 0.0748262926936149597
0.5 0.629282772541046143 0.0787035748362541199
0.5 0.638265669345855713 0.0788505673408508301
0.535499036312103271 0.631321251392364502 0.0748262926936149597
0.534947693347930908 0.641985177993774414 0.0740530267357826233
0.558905363082885742 0.639204800128936768 0.077169954776763916
0.554930686950683594 0.656032979488372803 0.0757078602910041809
0.573050498962402344 0.647850990295410156 0.0961022078990936279
0.567480981349945068 0.665307223796844482 0.0928386971354484558
0.587222456932067871 0.65647357702255249 0.115001238882541656
0.581766009330749512 0.679154515266418457 0.111811921000480652
0.594400644302368164 0.618367552757263184 0.11963178962469101
0.603870570659637451 0.585794746875762939 0.127660855650901794
0.611541807651519775 0.563479840755462646 0.13416309654712677
0.618475794792175293 0.567326486110687256 0.15883152186870575
0.616428554058074951 0.545068860054016113 0.141162395477294922
0.623570919036865234 0.54935300350189209 0.168405413627624512
0.628270208835601807 0.518856823444366455 0.172013625502586365
0.628700017929077148 0.493037581443786621 0.175161004066467285
0.620756924152374268 0.456956595182418823 0.174357771873474121
0.61397862434387207 0.425678879022598267 0.164694741368293762
0.608541190624237061 0.420911788940429688 0.140096694231033325
0.595847189426422119 0.421396404504776001 0.124055415391921997
0.467590928077697754 0.560328483581542969 0.0871721506118774414
0.547331571578979492 0.342188030481338501 0.236292362213134766
0.55316317081451416 0.368406355381011963 0.231578990817070007
0.548151910305023193 0.363285183906555176 0.222087055444717407
0.54268336296081543 0.362584382295608521 0.217282727360725403
0.545135915279388428 0.346994668245315552 0.170229718089103699
0.548646867275238037 0.338854432106018066 0.167628586292266846
0.457623779773712158 0.370855718851089478 0.144017159938812256
0.418600797653198242 0.276961684226989746 0.120742276310920715
0.41801336407661438 0.297316700220108032 0.11540500819683075
0.421429157257080078 0.318393915891647339 0.115853220224380493
0.427162140607833862 0.337350785732269287 0.114183731377124786
0.409908294677734375 0.416284501552581787 0.230160266160964966
0.420593142509460449 0.392405271530151367 0.229411497712135315
0.425654947757720947 0.393570542335510254 0.255354344844818115
0.437113016843795776 0.3757457435131073 0.230609148740768433
0.44683682918548584 0.368406355381011963 0.231578990817070007
0.453186541795730591 0.366816431283950806 0.240312293171882629
0.44754144549369812 0.352304160594940186 0.230765312910079956
0.452044367790222168 0.351176619529724121 0.236958488821983337
0.448276042938232422 0.343287825584411621 0.230251133441925049
0.452668458223342896 0.342188030481338501 0.236292362213134766
0.458453923463821411 0.34218132495880127 0.239794284105300903
0.4579753577709198 0.351169824600219727 0.240548491477966309
0.423478186130523682 0.3909493088722229 0.310721099376678467
0.451848089694976807 0.363285183906555176 0.222087055444717407
0.451095104217529297 0.348672479391098022 0.224034219980239868
0.451742559671401978 0.339745372533798218 0.223685204982757568
0.458793371915817261 0.556268155574798584 0.0889507830142974854
0.449781328439712524 0.578918814659118652 0.0838239714503288269
0.433187276124954224 0.61232149600982666 0.0826287418603897095
0.441094636917114258 0.639204800128936768 0.077169954776763916
0.418893903493881226 0.580834746360778809 0.0901299417018890381
0.440773129463195801 0.555421888828277588 0.0886302068829536438
0.412075281143188477 0.557190775871276855 0.0978154614567756653
0.399133205413818359 0.558763444423675537 0.114387497305870056
0.393370926380157471 0.54019618034362793 0.123096480965614319
0.405435919761657715 0.578358590602874756 0.109054818749427795
0.465052306652069092 0.641985177993774414 0.0740530267357826233
0.530336201190948486 0.652781248092651367 0.0718085542321205139
0.548011481761932373 0.671329140663146973 0.0728860348463058472
0.558539867401123047 0.680651247501373291 0.0893187522888183594
0.549088776111602783 0.693621277809143066 0.0879618749022483826
0.566032290458679199 0.695098221302032471 0.106003567576408386
0.55311894416809082 0.70729595422744751 0.100580416619777679
0.5 0.618238627910614014 0.0810766369104385376
0.526870191097259521 0.609493434429168701 0.0851483866572380066
0.527623891830444336 0.622211933135986328 0.0830784589052200317
0.54024118185043335 0.609122872352600098 0.0779920518398284912
0.409411430358886719 0.276868730783462524 0.595298409461975098
0.41350826621055603 0.280019164085388184 0.600971877574920654
0.409026801586151123 0.264732569456100464 0.608739376068115234
0.414763838052749634 0.280294805765151978 0.605788290500640869
0.410416722297668457 0.305504590272903442 0.604169487953186035
0.406250655651092529 0.243561014533042908 0.590542495250701904
0.407903283834457397 0.246172294020652771 0.598263919353485107
0.410656571388244629 0.241765320301055908 0.599164903163909912
0.399719864130020142 0.236393705010414124 0.606312215328216553
0.402835935354232788 0.231198236346244812 0.602046072483062744
0.395274430513381958 0.227092772722244263 0.610116660594940186
0.398986130952835083 0.22087414562702179 0.604272007942199707
0.386964708566665649 0.212500378489494324 0.615383803844451904
0.393634885549545288 0.208115443587303162 0.609466969966888428
0.384637117385864258 0.201435565948486328 0.619623780250549316
0.412189334630966187 0.198740318417549133 0.624742567539215088
0.381738126277923584 0.20200154185295105 0.641540169715881348
0.422640174627304077 0.242004320025444031 0.589338719844818115
0.420101374387741089 0.238155394792556763 0.598648786544799805
0.417169243097305298 0.226362407207489014 0.60117495059967041
0.433977097272872925 0.226179525256156921 0.610456943511962891
0.43284955620765686 0.213120728731155396 0.611567139625549316
0.435176938772201538 0.219941169023513794 0.627524733543395996
0.434114515781402588 0.204635694622993469 0.617448031902313232
0.432879149913787842 0.202121421694755554 0.629302620887756348
0.415406495332717896 0.215946391224861145 0.601819634437561035
0.412634551525115967 0.202449455857276917 0.610856115818023682
0.42982637882232666 0.202516093850135803 0.640562236309051514
0.426614552736282349 0.335395961999893188 0.126875147223472595
0.431106746196746826 0.354990601539611816 0.132116377353668213
0.437219738960266113 0.373552024364471436 0.137641012668609619
0.422320008277893066 0.331799238920211792 0.619533956050872803
0.433676451444625854 0.335410714149475098 0.60970538854598999
0.438831329345703125 0.344037532806396484 0.593024909496307373
0.435587048530578613 0.348992466926574707 0.611938774585723877
0.434444665908813477 0.377118021249771118 0.57857435941696167
0.412070006132125854 0.304062217473983765 0.592062830924987793
0.410130232572555542 0.304093539714813232 0.598143279552459717
0.407252103090286255 0.320451170206069946 0.599784314632415771
0.390709638595581055 0.42113107442855835 0.579050242900848389
0.397690176963806152 0.402872532606124878 0.570909500122070312
0.395799875259399414 0.419135481119155884 0.569069206714630127
0.401864081621170044 0.417411595582962036 0.562686264514923096
0.394860506057739258 0.432078093290328979 0.563416063785552979
0.412404745817184448 0.433199048042297363 0.551200926303863525
0.402211159467697144 0.451449453830718994 0.553787112236022949
0.414348006248474121 0.438071072101593018 0.543469250202178955
0.404093235731124878 0.453066766262054443 0.545656681060791016
0.41180872917175293 0.439501076936721802 0.517266452312469482
0.402353852987289429 0.45633050799369812 0.515688300132751465
0.394972234964370728 0.433505326509475708 0.47785302996635437
0.379948288202285767 0.459383457899093628 0.476215630769729614
0.366412639617919922 0.43248063325881958 0.42170599102973938
0.355270087718963623 0.462344348430633545 0.4277019202709198
0.381521642208099365 0.41302761435508728 0.418797999620437622
0.420413434505462646 0.425520509481430054 0.514796555042266846
0.421195417642593384 0.425345659255981445 0.542420506477355957
0.419072180986404419 0.419244349002838135 0.554777562618255615
0.384965837001800537 0.437902063131332397 0.601759493350982666
0.387611865997314453 0.437879264354705811 0.583272576332092285
0.390630364418029785 0.43425324559211731 0.571647465229034424
0.386539965867996216 0.449581891298294067 0.582249999046325684
0.386479735374450684 0.447604149580001831 0.572760999202728271
0.384287357330322266 0.459860473871231079 0.583115458488464355
0.391429215669631958 0.447526216506958008 0.562501072883605957
0.380619198083877563 0.477412879467010498 0.582724511623382568
0.39407762885093689 0.487939208745956421 0.557171046733856201
0.384436815977096558 0.453851133584976196 0.604513466358184814
0.39439237117767334 0.480858743190765381 0.51653522253036499
0.496723443269729614 0.730781316757202148 0.713806092739105225
0.5 0.731840193271636963 0.711533963680267334
0.5 0.740521788597106934 0.736623704433441162
0.503276526927947998 0.730781316757202148 0.713806092739105225
0.506935238838195801 0.739167869091033936 0.735337674617767334
0.516261875629425049 0.725264668464660645 0.716416239738464355
0.514191508293151855 0.736022889614105225 0.73708498477935791
0.528175830841064453 0.720456540584564209 0.739393413066864014
0.530398368835449219 0.731417596340179443 0.7588387131690979
0.532574892044067383 0.709460079669952393 0.745254456996917725
0.536994338035583496 0.719059526920318604 0.764753162860870361
0.539448201656341553 0.704879701137542725 0.769477307796478271
0.542416989803314209 0.730476021766662598 0.790958702564239502
0.545608997344970703 0.710944294929504395 0.797385513782501221
0.546300888061523438 0.730863332748413086 0.801257491111755371
0.545010566711425781 0.72013932466506958 0.814418137073516846
0.552594304084777832 0.730559289455413818 0.805489838123321533
0.555384814739227295 0.722898900508880615 0.817695379257202148
0.561261355876922607 0.732292830944061279 0.807047843933105469
0.570055484771728516 0.733133375644683838 0.81036067008972168
0.566022694110870361 0.74595719575881958 0.803462386131286621
0.573256552219390869 0.744878292083740234 0.807672500610351562
0.568058252334594727 0.753171682357788086 0.807797849178314209
0.5779610276222229 0.751487553119659424 0.811049163341522217
0.571257591247558594 0.757864475250244141 0.812967061996459961
0.580909252166748047 0.758787989616394043 0.816260099411010742
0.574586153030395508 0.762549996376037598 0.825166761875152588
0.587681114673614502 0.762067317962646484 0.818724870681762695
0.58481144905090332 0.767058849334716797 0.829310417175292969
0.596560537815093994 0.772597968578338623 0.827281832695007324
0.583991646766662598 0.768686354160308838 0.838088095188140869
0.600996434688568115 0.773873031139373779 0.834178686141967773
0.600001990795135498 0.766737043857574463 0.837714731693267822
0.609279990196228027 0.769415140151977539 0.832225203514099121
0.600192248821258545 0.764130890369415283 0.83505403995513916
0.609388411045074463 0.767666816711425781 0.82960134744644165
0.599496781826019287 0.76054847240447998 0.828965306282043457
0.612461566925048828 0.762670457363128662 0.827768683433532715
0.608153998851776123 0.751738548278808594 0.823483765125274658
0.616531491279602051 0.756046414375305176 0.823291420936584473
0.612268149852752686 0.745079159736633301 0.820763885974884033
0.62057948112487793 0.750278472900390625 0.82143557071685791
0.624008476734161377 0.741816401481628418 0.820489108562469482
0.63088071346282959 0.752179861068725586 0.8194732666015625
0.638925790786743164 0.750333428382873535 0.816630184650421143
0.634044349193572998 0.755983471870422363 0.819401860237121582
0.637703359127044678 0.763404488563537598 0.818424403667449951
0.634265542030334473 0.763064742088317871 0.821124553680419922
0.631835401058197021 0.770720481872558594 0.822943925857543945
0.629615366458892822 0.766107618808746338 0.82299274206161499
0.619557201862335205 0.771287024021148682 0.827608466148376465
0.619978189468383789 0.76692962646484375 0.827596187591552734
0.605187952518463135 0.775153994560241699 0.830565154552459717
0.618906080722808838 0.777395665645599365 0.825006604194641113
0.604554593563079834 0.770714342594146729 0.823578059673309326
0.618727982044219971 0.768601953983306885 0.818006575107574463
0.612829446792602539 0.755712926387786865 0.814619541168212891
0.628117918968200684 0.761589527130126953 0.814267456531524658
0.615674793720245361 0.743704020977020264 0.811064362525939941
0.63057708740234375 0.737192749977111816 0.818575382232666016
0.615032076835632324 0.734813868999481201 0.822452366352081299
0.600458264350891113 0.739541530609130859 0.820173442363739014
0.594463229179382324 0.747750461101531982 0.822937905788421631
0.591225504875183105 0.755348145961761475 0.830016732215881348
0.588612198829650879 0.756841897964477539 0.837077438831329346
