ply
format ascii 1.0
element vertex 763
property float x
property float y
property float z
end_header
0.556450605392456055 0.32888185977935791 0.416639357805252075
0.557949662208557129 0.3308582603931427 0.359605789184570312
0.558215439319610596 0.32720649242401123 0.38733595609664917
0.558352947235107422 0.341573417186737061 0.320891886949539185
0.55888742208480835 0.347134768962860107 0.847499370574951172
0.558879494667053223 0.361325383186340332 0.293702840805053711
0.559044957160949707 0.377482086420059204 0.934192776679992676
0.557161211967468262 0.387750893831253052 0.282548695802688599
0.557396531105041504 0.42639458179473877 0.706752359867095947
0.558736264705657959 0.425746440887451172 0.71763300895690918
0.554792404174804688 0.434545606374740601 0.276860177516937256
0.556740343570709229 0.43577808141708374 0.270650655031204224
0.558305919170379639 0.434830397367477417 0.699934005737304688
0.55779498815536499 0.445740997791290283 0.700879156589508057
0.555262207984924316 0.445240169763565063 0.272266149520874023
0.55860745906829834 0.445220500230789185 0.193950548768043518
0.555495977401733398 0.45552217960357666 0.260883182287216187
0.558304727077484131 0.456774324178695679 0.700737297534942627
0.556855499744415283 0.465509653091430664 0.232205852866172791
0.55706411600112915 0.463643789291381836 0.244722574949264526
0.556467413902282715 0.585933685302734375 0.162652119994163513
0.558408141136169434 0.591423273086547852 0.244220748543739319
0.559166252613067627 0.596525013446807861 0.0562714934349060059
0.556650400161743164 0.638218045234680176 0.242229640483856201
0.558140754699707031 0.658133983612060547 0.0214626900851726532
0.559021651744842529 0.739658951759338379 0.140039399266242981
0.558896303176879883 0.770829200744628906 0.0715875551104545593
0.559217929840087891 0.158428311347961426 0.746112942695617676
0.560365438461303711 0.184449717402458191 0.639649331569671631
0.559230148792266846 0.220321580767631531 0.133261293172836304
0.557326734066009521 0.266840815544128418 0.736761868000030518
0.559344649314880371 0.303575426340103149 0.469812482595443726
0.559135913848876953 0.315384060144424438 0.671208500862121582
0.559560477733612061 0.315768539905548096 0.678914129734039307
0.559108555316925049 0.318619430065155029 0.426298320293426514
0.559435725212097168 0.320764750242233276 0.435306191444396973
0.559045314788818359 0.331214725971221924 0.841846108436584473
0.559535861015319824 0.378073751926422119 0.1332244873046875
0.55727684497833252 0.401735275983810425 0.868132710456848145
0.559325873851776123 0.409223437309265137 0.88351207971572876
0.558282315731048584 0.425559848546981812 0.271041542291641235
0.557898342609405518 0.445593655109405518 0.261608421802520752
0.557608723640441895 0.454093307256698608 0.252725303173065186
0.558357596397399902 0.455153942108154297 0.213688775897026062
0.557634472846984863 0.581308186054229736 0.136587023735046387
0.558504939079284668 0.586787998676300049 0.0934789404273033142
0.559287130832672119 0.592729389667510986 0.233925908803939819
0.557326734066009521 0.5954398512840271 0.0586774908006191254
0.559033453464508057 0.630307555198669434 0.242539957165718079
0.558186054229736328 0.63489377498626709 0.208194702863693237
0.5581551194190979 0.688518643379211426 0.261213153600692749
0.558522164821624756 0.709372460842132568 0.252802878618240356
0.560042202472686768 0.151079148054122925 0.686940968036651611
0.5608406662940979 0.149033039808273315 0.71345973014831543
0.5624275803565979 0.158360064029693604 0.368140280246734619
0.561031460762023926 0.160324156284332275 0.212350741028785706
0.561336755752563477 0.159817934036254883 0.224487423896789551
0.567036747932434082 0.163963645696640015 0.67855912446975708
0.559792995452880859 0.167076751589775085 0.424245834350585938
0.56674659252166748 0.170608684420585632 0.66800302267074585
0.559349596500396729 0.171221494674682617 0.665091812610626221
0.563196182250976562 0.171929061412811279 0.435442686080932617
0.561100244522094727 0.174742132425308228 0.444227635860443115
0.56275784969329834 0.179895937442779541 0.447739452123641968
0.560965597629547119 0.18640841543674469 0.457014411687850952
0.561485767364501953 0.190583109855651855 0.457390040159225464
0.56021571159362793 0.192373871803283691 0.655365109443664551
0.560443341732025146 0.194145500659942627 0.464800596237182617
0.565207421779632568 0.203441575169563293 0.737145364284515381
0.560615122318267822 0.211053952574729919 0.142029553651809692
0.560283660888671875 0.211527794599533081 0.472308367490768433
0.559523701667785645 0.214423865079879761 0.616583406925201416
0.559790313243865967 0.219068974256515503 0.616390883922576904
0.561333060264587402 0.244783490896224976 0.917782247066497803
0.559891045093536377 0.269772708415985107 0.61777806282043457
0.559984862804412842 0.265313237905502319 0.713287889957427979
0.559045314788818359 0.265701651573181152 0.750409424304962158
0.560360133647918701 0.279368370771408081 0.703699171543121338
0.56045907735824585 0.290055513381958008 0.704062521457672119
0.567293882369995117 0.300329208374023438 0.467322021722793579
0.561135411262512207 0.308075636625289917 0.695493102073669434
0.566520214080810547 0.309406846761703491 0.648758351802825928
0.560014784336090088 0.320338517427444458 0.396836817264556885
0.560117185115814209 0.320646852254867554 0.417760372161865234
0.559912621974945068 0.322108656167984009 0.390889018774032593
0.560188353061676025 0.32183566689491272 0.408412247896194458
0.565916895866394043 0.327929288148880005 0.941294550895690918
0.559810042381286621 0.332166850566864014 0.349475443363189697
0.566281318664550781 0.338706791400909424 0.125032216310501099
0.560721397399902344 0.343345016241073608 0.122186221182346344
0.559729993343353271 0.351116478443145752 0.303973138332366943
0.559045314788818359 0.351968884468078613 0.849228262901306152
0.560235857963562012 0.370201647281646729 0.285974591970443726
0.560359001159667969 0.375632375478744507 0.284248143434524536
0.560696125030517578 0.391536682844161987 0.926191508769989014
0.5612068772315979 0.396780848503112793 0.86920464038848877
0.559621810913085938 0.409768491983413696 0.152580693364143372
0.559911549091339111 0.410205483436584473 0.902084648609161377
0.560948193073272705 0.410249680280685425 0.715416014194488525
0.559171557426452637 0.417836010456085205 0.273135751485824585
0.55965423583984375 0.417119145393371582 0.716490805149078369
0.560005843639373779 0.416780322790145874 0.706451296806335449
0.559558868408203125 0.418508708477020264 0.161556124687194824
0.561370253562927246 0.41937294602394104 0.701070666313171387
0.559315264225006104 0.426016479730606079 0.701322555541992188
0.559715032577514648 0.426723569631576538 0.171992406249046326
0.559790432453155518 0.435920476913452148 0.262223690748214722
0.559881687164306641 0.435719132423400879 0.18258821964263916
0.560730636119842529 0.44406166672706604 0.254244536161422729
0.559866130352020264 0.44827955961227417 0.203614428639411926
0.560475766658782959 0.452453285455703735 0.221465155482292175
0.559788227081298828 0.454510718584060669 0.243369802832603455
0.559745907783508301 0.456577897071838379 0.233009159564971924
0.559743642807006836 0.465814113616943359 0.72371971607208252
0.560113847255706787 0.473321884870529175 0.725447118282318115
0.560224771499633789 0.483682513236999512 0.703681468963623047
0.559924840927124023 0.482371479272842407 0.724767088890075684
0.559595108032226562 0.595228731632232666 0.221468597650527954
0.560098409652709961 0.605412542819976807 0.0374308302998542786
0.559941589832305908 0.606527209281921387 0.0283812452107667923
0.559436678886413574 0.611309826374053955 0.27305719256401062
0.559433519840240479 0.621542751789093018 0.263570576906204224
0.56108403205871582 0.62633514404296875 0.0321719571948051453
0.560645878314971924 0.625908017158508301 0.18811914324760437
0.560173988342285156 0.632561385631561279 0.233329802751541138
0.560687482357025146 0.649933815002441406 0.0243597589433193207
0.56042015552520752 0.654024124145507812 0.0634208172559738159
0.560896575450897217 0.664276659488677979 0.0243057236075401306
0.561004221439361572 0.664134323596954346 0.030836375430226326
0.5590667724609375 0.693939566612243652 0.264331191778182983
0.55950474739074707 0.700524210929870605 0.139369651675224304
0.559835135936737061 0.710030436515808105 0.232926174998283386
0.560793399810791016 0.708051621913909912 0.243720889091491699
0.560228109359741211 0.760183811187744141 0.104340910911560059
0.560671091079711914 0.770470798015594482 0.0861749351024627686
0.563772678375244141 0.148570984601974487 0.696813464164733887
0.566034555435180664 0.154533997178077698 0.689102411270141602
0.561827659606933594 0.15529361367225647 0.683179736137390137
0.56610262393951416 0.151163101196289062 0.729283511638641357
0.565406441688537598 0.154121547937393188 0.737569034099578857
0.562858402729034424 0.158537805080413818 0.794310033321380615
0.562590062618255615 0.158878102898597717 0.231395646929740906
0.566769599914550781 0.164578914642333984 0.378249049186706543
0.566518902778625488 0.157548904418945312 0.755486547946929932
0.561336755752563477 0.161590531468391418 0.380053579807281494
0.564237236976623535 0.166480645537376404 0.672726750373840332
0.566066980361938477 0.16432209312915802 0.863174796104431152
0.563483715057373047 0.167648300528526306 0.196466565132141113
0.563741445541381836 0.164435029029846191 0.42775079607963562
0.565312743186950684 0.163747593760490417 0.435971051454544067
0.563709735870361328 0.175963312387466431 0.178222522139549255
0.56364738941192627 0.183040469884872437 0.456903427839279175
0.563041865825653076 0.179580226540565491 0.640052914619445801
0.561947941780090332 0.18213304877281189 0.648704767227172852
0.567174792289733887 0.181684747338294983 0.582581877708435059
0.561506271362304688 0.179874345660209656 0.65633922815322876
0.561582446098327637 0.1923714280128479 0.648971438407897949
0.565133810043334961 0.19495275616645813 0.155680045485496521
0.56271892786026001 0.194376766681671143 0.468636989593505859
0.561336755752563477 0.206818848848342896 0.471560537815093994
0.563845336437225342 0.20984359085559845 0.598760664463043213
0.565680921077728271 0.21202424168586731 0.621910512447357178
0.563025057315826416 0.221468135714530945 0.477035969495773315
0.566214203834533691 0.231258660554885864 0.912393689155578613
0.561623156070709229 0.24020269513130188 0.614003539085388184
0.563056886196136475 0.24965493381023407 0.614614427089691162
0.56457442045211792 0.252274543046951294 0.921761035919189453
0.561422109603881836 0.265047609806060791 0.709291398525238037
0.565518796443939209 0.26926305890083313 0.474570035934448242
0.560763895511627197 0.265712440013885498 0.737519979476928711
0.560763895511627197 0.265580862760543823 0.754705846309661865
0.565346837043762207 0.278911679983139038 0.797913134098052979
0.561841845512390137 0.284599721431732178 0.120588921010494232
0.564303100109100342 0.292468905448913574 0.11835673451423645
0.565809428691864014 0.300474107265472412 0.937571585178375244
0.566757500171661377 0.301034361124038696 0.823960542678833008
0.564434707164764404 0.301414370536804199 0.117418862879276276
0.565464138984680176 0.309660166501998901 0.698052406311035156
0.561358988285064697 0.312554270029067993 0.428556084632873535
0.561166107654571533 0.314987331628799438 0.664193689823150635
0.562164306640625 0.316044032573699951 0.12060169130563736
0.562031447887420654 0.32787477970123291 0.120175004005432129
0.5630074143409729 0.325043529272079468 0.368208557367324829
0.564502716064453125 0.32747998833656311 0.348433017730712891
0.560483813285827637 0.333660542964935303 0.340526014566421509
0.563580036163330078 0.334466308355331421 0.328630924224853516
0.565541088581085205 0.337704122066497803 0.844843864440917969
0.563070058822631836 0.337356448173522949 0.456895112991333008
0.566055893898010254 0.33721458911895752 0.319053024053573608
0.562280774116516113 0.346020638942718506 0.308962434530258179
0.564971983432769775 0.346710503101348877 0.127571791410446167
0.561895012855529785 0.357968240976333618 0.129886984825134277
0.561643302440643311 0.366416335105895996 0.129920348525047302
0.562133610248565674 0.366168379783630371 0.937139451503753662
0.560870587825775146 0.379408359527587891 0.85886460542678833
0.561494946479797363 0.384976595640182495 0.139892593026161194
0.563529312610626221 0.386380940675735474 0.278166800737380981
0.561841070652008057 0.393589168787002563 0.868066906929016113
0.560722708702087402 0.398779302835464478 0.275550603866577148
0.561905622482299805 0.401823669672012329 0.87336653470993042
0.56334155797958374 0.407102197408676147 0.156827583909034729
0.560605347156524658 0.408840447664260864 0.273930728435516357
0.563713729381561279 0.404602885246276855 0.885136425495147705
0.564080238342285156 0.405614376068115234 0.903279304504394531
0.560246884822845459 0.410342961549758911 0.89235156774520874
0.561197161674499512 0.410691618919372559 0.710120260715484619
0.561652123928070068 0.413210541009902954 0.720275700092315674
0.560385167598724365 0.425766080617904663 0.264207929372787476
0.566329836845397949 0.426036149263381958 0.697095870971679688
0.565178096294403076 0.435782968997955322 0.697287857532501221
0.562503993511199951 0.434118390083312988 0.187857925891876221
0.560838222503662109 0.449011236429214478 0.211102083325386047
0.561009466648101807 0.449585705995559692 0.24614359438419342
0.565067470073699951 0.465760082006454468 0.728474795818328857
0.561662137508392334 0.475762277841567993 0.702923357486724854
0.562836587429046631 0.490443944931030273 0.713582515716552734
0.56693500280380249 0.58220672607421875 0.125631764531135559
0.561470150947570801 0.591899573802947998 0.27744254469871521
0.562469840049743652 0.598243594169616699 0.278395622968673706
0.56338268518447876 0.606998622417449951 0.269763380289077759
0.563086986541748047 0.612488269805908203 0.0235151760280132294
0.564204573631286621 0.611025035381317139 0.261417925357818604
0.560680747032165527 0.622406959533691406 0.255250155925750732
0.562410831451416016 0.620437979698181152 0.252208739519119263
0.563828408718109131 0.626767277717590332 0.124259345233440399
0.5625 0.627503812313079834 0.231865063309669495
0.566397190093994141 0.631191432476043701 0.107008159160614014
0.562231540679931641 0.634540200233459473 0.212142065167427063
0.565562725067138672 0.638463497161865234 0.0379498526453971863
0.56320655345916748 0.64282381534576416 0.0336401201784610748
0.565626025199890137 0.65199124813079834 0.0201467555016279221
0.562829792499542236 0.657903194427490234 0.0153445256873965263
0.566018521785736084 0.660996675491333008 0.0474659241735935211
0.563423633575439453 0.66296076774597168 0.0396655052900314331
0.56636965274810791 0.677200496196746826 0.223027095198631287
0.566462934017181396 0.678801178932189941 0.232534334063529968
0.560601174831390381 0.687315583229064941 0.254800856113433838
0.56592857837677002 0.687747716903686523 0.145426467061042786
0.565841495990753174 0.689549803733825684 0.154426440596580505
0.563040375709533691 0.697239220142364502 0.260555177927017212
0.562172651290893555 0.703494906425476074 0.259633541107177734
0.566793382167816162 0.706131696701049805 0.232212230563163757
0.56647104024887085 0.715677261352539062 0.212675794959068298
0.566365242004394531 0.723450124263763428 0.165017366409301758
0.567124068737030029 0.727432429790496826 0.0881085917353630066
0.565410077571868896 0.744809806346893311 0.125509500503540039
0.565596997737884521 0.76417088508605957 0.096209987998008728
0.561445653438568115 0.762486696243286133 0.112902425229549408
0.565633237361907959 0.149142041802406311 0.828318893909454346
0.566564083099365234 0.148642674088478088 0.834190607070922852
0.566140592098236084 0.156252101063728333 0.329282999038696289
0.565072536468505859 0.156777486205101013 0.253329247236251831
0.564037978649139404 0.156251117587089539 0.349515259265899658
0.566615462303161621 0.155867129564285278 0.746437966823577881
0.562482476234436035 0.159410849213600159 0.76329880952835083
0.562482476234436035 0.159529209136962891 0.775328993797302246
0.566956579685211182 0.166305825114250183 0.385627180337905884
0.565437853336334229 0.162081047892570496 0.407284826040267944
0.565832078456878662 0.165198072791099548 0.204460948705673218
0.564226329326629639 0.172217786312103271 0.44637143611907959
0.566724061965942383 0.173240587115287781 0.657959640026092529
0.566212356090545654 0.174822673201560974 0.457295775413513184
0.567762672901153564 0.176674336194992065 0.641007959842681885
0.567049801349639893 0.175240054726600647 0.649215936660766602
0.563994646072387695 0.179315060377120972 0.630538821220397949
0.563337862491607666 0.185633569955825806 0.167023718357086182
0.566227972507476807 0.180739521980285645 0.590546250343322754
0.564600706100463867 0.183808445930480957 0.466222614049911499
0.568137407302856445 0.185219153761863708 0.574309766292572021
0.565464258193969727 0.19353465735912323 0.736269295215606689
0.56724625825881958 0.192722991108894348 0.57161867618560791
0.562976419925689697 0.196701765060424805 0.742245614528656006
0.566407203674316406 0.203289389610290527 0.47472226619720459
0.567161619663238525 0.203925251960754395 0.572268843650817871
0.563855886459350586 0.208325311541557312 0.580911397933959961
0.563564658164978027 0.210643947124481201 0.591072201728820801
0.565358936786651611 0.220701143145561218 0.621566295623779297
0.565770328044891357 0.222308248281478882 0.136558040976524353
0.562363922595977783 0.23375798761844635 0.129971936345100403
0.564755916595458984 0.242743253707885742 0.129782393574714661
0.563329041004180908 0.242686286568641663 0.47981300950050354
0.56774604320526123 0.242042556405067444 0.481668412685394287
0.56625819206237793 0.251528680324554443 0.47922399640083313
0.566718459129333496 0.262703418731689453 0.717951118946075439
0.566024363040924072 0.263994336128234863 0.738633632659912109
0.566915273666381836 0.263903021812438965 0.748084366321563721
0.565582811832427979 0.264205008745193481 0.727556109428405762
0.566156387329101562 0.270188629627227783 0.621785283088684082
0.562490165233612061 0.272477775812149048 0.120581053197383881
0.565023243427276611 0.279461145401000977 0.472545027732849121
0.563530504703521729 0.277679711580276489 0.622885227203369141
0.566996574401855469 0.290359944105148315 0.631418228149414062
0.563008129596710205 0.296757489442825317 0.633657336235046387
0.562343299388885498 0.300151973962783813 0.702697932720184326
0.562668859958648682 0.309088140726089478 0.425842642784118652
0.563592076301574707 0.311107754707336426 0.417439728975296021
0.567043125629425049 0.310630470514297485 0.831319510936737061
0.567044377326965332 0.31077924370765686 0.433809518814086914
0.566886246204376221 0.317539691925048828 0.689380288124084473
0.56315237283706665 0.317664414644241333 0.386500746011734009
0.562898695468902588 0.315409600734710693 0.398744463920593262
0.56243133544921875 0.316679894924163818 0.41442534327507019
0.566395044326782227 0.318969547748565674 0.836771488189697266
0.565139949321746826 0.318441689014434814 0.4634552001953125
0.566235065460205078 0.319270044565200806 0.940850615501403809
0.565761744976043701 0.318860530853271484 0.438572973012924194
0.563522517681121826 0.32592540979385376 0.356449484825134277
0.566134452819824219 0.328709989786148071 0.841451883316040039
0.565820634365081787 0.328673660755157471 0.340323716402053833
0.562482476234436035 0.335584342479705811 0.461559325456619263
0.562482476234436035 0.35448881983757019 0.29705655574798584
0.566511988639831543 0.3587607741355896 0.852309942245483398
0.564019441604614258 0.364455670118331909 0.287249773740768433
0.566340744495391846 0.367591351270675659 0.855433344841003418
0.566187500953674316 0.368032783269882202 0.281893670558929443
0.565833985805511475 0.385958641767501831 0.865403592586517334
0.565566301345825195 0.386263072490692139 0.145280614495277405
0.563946306705474854 0.387073278427124023 0.926891207695007324
0.563085377216339111 0.393805235624313354 0.148474738001823425
0.564204931259155273 0.394841313362121582 0.920328676700592041
0.564158141613006592 0.396790653467178345 0.271686732769012451
0.566002964973449707 0.396574646234512329 0.153965890407562256
0.563797652721405029 0.406591534614562988 0.717834293842315674
0.563595592975616455 0.403306573629379272 0.909295916557312012
0.56573951244354248 0.407107114791870117 0.707388222217559814
0.563715636730194092 0.406620979309082031 0.893443584442138672
0.563462972640991211 0.415547847747802734 0.165953263640403748
0.562341749668121338 0.41461491584777832 0.268525987863540649
0.562211990356445312 0.412017345428466797 0.706439077854156494
0.565698623657226562 0.415935754776000977 0.725741207599639893
0.567197859287261963 0.417109280824661255 0.697871625423431396
0.562424540519714355 0.42554020881652832 0.259351670742034912
0.563000679016113281 0.423806875944137573 0.176855981349945068
0.564587593078613281 0.426399499177932739 0.184535160660743713
0.564058959484100342 0.426139265298843384 0.254029959440231323
0.563173592090606689 0.435041517019271851 0.252260297536849976
0.563307583332061768 0.436156183481216431 0.194442570209503174
0.5615692138671875 0.442136853933334351 0.197883173823356628
0.563308954238891602 0.44249531626701355 0.204864576458930969
0.562534689903259277 0.441802948713302612 0.249978512525558472
0.562794625759124756 0.444459408521652222 0.244874298572540283
0.563764333724975586 0.444194257259368896 0.213240981101989746
0.563608825206756592 0.445377647876739502 0.222833156585693359
0.567087709903717041 0.445303946733474731 0.699368298053741455
0.56571274995803833 0.454559803009033203 0.727521717548370361
0.567205250263214111 0.453469693660736084 0.701485097408294678
0.564754664897918701 0.463034898042678833 0.702212810516357422
0.563769400119781494 0.484340459108352661 0.708684027194976807
0.565060317516326904 0.582933485507965088 0.135369762778282166
0.566597163677215576 0.584239602088928223 0.10513683408498764
0.566446661949157715 0.586660385131835938 0.157215476036071777
0.566302657127380371 0.588442742824554443 0.164495423436164856
0.567227363586425781 0.588609695434570312 0.242337673902511597
0.567739188671112061 0.590004265308380127 0.252878516912460327
0.564762592315673828 0.588369131088256836 0.231128036975860596
0.563974916934967041 0.590976417064666748 0.271036118268966675
0.566823840141296387 0.592645943164825439 0.0775151923298835754
0.566266477108001709 0.589788198471069336 0.221837371587753296
0.565727829933166504 0.595238566398620605 0.0697049647569656372
0.566693007946014404 0.592508435249328613 0.1958208829164505
0.56765824556350708 0.591585338115692139 0.204525783658027649
0.566644787788391113 0.591536223888397217 0.213328853249549866
0.566421151161193848 0.603502511978149414 0.0484411120414733887
0.567031979560852051 0.609949648380279541 0.0279098562896251678
0.562482476234436035 0.616372227668762207 0.259752362966537476
0.565767168998718262 0.622318565845489502 0.14748828113079071
0.567218005657196045 0.619357764720916748 0.154371455311775208
0.567126691341400146 0.619691610336303711 0.165211334824562073
0.566538035869598389 0.621822655200958252 0.175768882036209106
0.567163944244384766 0.623556017875671387 0.126345708966255188
0.564442276954650879 0.620766997337341309 0.242491841316223145
0.566797852516174316 0.628942549228668213 0.136593908071517944
0.565759599208831787 0.627327024936676025 0.114765845239162445
0.563550174236297607 0.630464732646942139 0.222715809941291809
0.562516987323760986 0.634618818759918213 0.220489487051963806
0.566074669361114502 0.657579123973846436 0.0567448213696479797
0.566512167453765869 0.681678652763366699 0.193570986390113831
0.562682390213012695 0.689844369888305664 0.252576529979705811
0.566215753555297852 0.690124332904815674 0.163750529289245605
0.564324021339416504 0.69654691219329834 0.134956315159797668
0.562357783317565918 0.704378783702850342 0.131874650716781616
0.563430190086364746 0.704118549823760986 0.253163278102874756
0.565373063087463379 0.706053197383880615 0.125284105539321899
0.564954459667205811 0.714965224266052246 0.115654110908508301
0.564325809478759766 0.7230721116065979 0.0978362709283828735
0.562482476234436035 0.723199784755706787 0.104220107197761536
0.56418687105178833 0.722502470016479492 0.173778265714645386
0.567051053047180176 0.734773218631744385 0.0831531509757041931
0.5670623779296875 0.732740342617034912 0.146801337599754333
0.563914656639099121 0.740189254283905029 0.0804215893149375916
0.56657940149307251 0.738485395908355713 0.136715173721313477
0.562482476234436035 0.744907975196838379 0.131093904376029968
0.561783075332641602 0.751659572124481201 0.123124569654464722
0.56572115421295166 0.755607426166534424 0.106275521218776703
0.567415118217468262 0.148026436567306519 0.706198930740356445
0.567015528678894043 0.148064732551574707 0.715726315975189209
0.564762592315673828 0.149527981877326965 0.721708893775939941
0.56589818000793457 0.151038885116577148 0.823807299137115479
0.566721677780151367 0.150324925780296326 0.845006406307220459
0.566827654838562012 0.155387893319129944 0.291202545166015625
0.565919637680053711 0.154569849371910095 0.300502568483352661
0.568128108978271484 0.154932215809822083 0.85290992259979248
0.567286252975463867 0.157007783651351929 0.263242095708847046
0.566778957843780518 0.155580863356590271 0.270815670490264893
0.567218184471130371 0.1559172123670578 0.280661672353744507
0.566136300563812256 0.155478730797767639 0.318834513425827026
0.567043781280517578 0.154964134097099304 0.815543889999389648
0.565320909023284912 0.157222360372543335 0.243189588189125061
0.566379427909851074 0.157480135560035706 0.339975088834762573
0.566778957843780518 0.157257214188575745 0.80578768253326416
0.56706768274307251 0.162499904632568359 0.222655907273292542
0.567750215530395508 0.161749616265296936 0.358876138925552368
0.566863775253295898 0.162040293216705322 0.369244605302810669
0.563491523265838623 0.160873129963874817 0.416493058204650879
0.567627668380737305 0.158692479133605957 0.78707277774810791
0.566763877868652344 0.163306161761283875 0.212066918611526489
0.567091405391693115 0.165284514427185059 0.397285640239715576
0.567156136035919189 0.16365872323513031 0.445574522018432617
0.568384945392608643 0.171602532267570496 0.195403978228569031
0.56673121452331543 0.174441143870353699 0.873150944709777832
0.566943943500518799 0.17385534942150116 0.186277300119400024
0.564218282699584961 0.179192796349525452 0.622063279151916504
0.565060317516326904 0.179333716630935669 0.606907248497009277
0.567638218402862549 0.185637012124061584 0.883358418941497803
0.565060317516326904 0.188822299242019653 0.885829329490661621
0.568633615970611572 0.191570565104484558 0.164471849799156189
0.567574918270111084 0.193868070840835571 0.473173081874847412
0.566451132297515869 0.200491026043891907 0.893777012825012207
0.565266072750091553 0.205083578824996948 0.147904649376869202
0.567058444023132324 0.213117733597755432 0.145364567637443542
0.568108260631561279 0.20722101628780365 0.58097076416015625
0.566809892654418945 0.21186414361000061 0.477357089519500732
0.565870165824890137 0.208674445748329163 0.61254960298538208
0.566142737865447998 0.212879583239555359 0.901811122894287109
0.566995739936828613 0.224308207631111145 0.908794999122619629
0.56771773099899292 0.230305597186088562 0.134358242154121399
0.564375102519989014 0.233474165201187134 0.478751629590988159
0.567385733127593994 0.231458038091659546 0.619699001312255859
0.567910909652709961 0.241754338145256042 0.618426740169525146
0.567988753318786621 0.243987008929252625 0.918756425380706787
0.56682276725769043 0.251024901866912842 0.126698270440101624
0.568410754203796387 0.252825468778610229 0.618790090084075928
0.566383540630340576 0.261286824941635132 0.618557333946228027
0.566639482975006104 0.260345548391342163 0.925325334072113037
0.568449020385742188 0.262155443429946899 0.476011693477630615
0.567862868309020996 0.263610869646072388 0.708967804908752441
0.566284775733947754 0.265121251344680786 0.755832254886627197
0.567473173141479492 0.269991755485534668 0.705417752265930176
0.566710352897644043 0.269111305475234985 0.777120232582092285
0.567877292633056641 0.270551979541778564 0.124266698956489563
0.567503809928894043 0.272531300783157349 0.786976516246795654
0.567532062530517578 0.280565470457077026 0.708295583724975586
0.567277133464813232 0.275492191314697266 0.792531430721282959
0.567795395851135254 0.279971808195114136 0.125388696789741516
0.567087769508361816 0.281568139791488647 0.932581245899200439
0.567141473293304443 0.281681060791015625 0.627156674861907959
0.569100320339202881 0.289334684610366821 0.124084033071994781
0.566574156284332275 0.282961666584014893 0.803388059139251709
0.567087411880493164 0.290979593992233276 0.708687901496887207
0.565919637680053711 0.28816753625869751 0.934539914131164551
0.567716658115386963 0.287083357572555542 0.809117376804351807
0.56736069917678833 0.291336119174957275 0.814245164394378662
0.567786276340484619 0.301227331161499023 0.638585746288299561
0.567393064498901367 0.300910115242004395 0.706226468086242676
0.565755009651184082 0.298813432455062866 0.417331695556640625
0.566897809505462646 0.299503326416015625 0.426624864339828491
0.564947724342346191 0.307576268911361694 0.82934117317199707
0.567006826400756836 0.31025579571723938 0.464704364538192749
0.568595468997955322 0.310716867446899414 0.123519353568553925
0.564388394355773926 0.313075751066207886 0.69223862886428833
0.566259324550628662 0.309694051742553711 0.398434579372406006
0.565439105033874512 0.310224860906600952 0.408797234296798706
0.566409707069396973 0.313592791557312012 0.656271994113922119
0.567813277244567871 0.31109890341758728 0.386409401893615723
0.562985777854919434 0.316393613815307617 0.409555822610855103
0.567039012908935547 0.319731593132019043 0.125274300575256348
0.568116962909698486 0.318552672863006592 0.670772969722747803
0.566863834857940674 0.319329947233200073 0.680412769317626953
0.565582454204559326 0.318314969539642334 0.376971900463104248
0.567610621452331543 0.328251898288726807 0.125298842787742615
0.567009150981903076 0.319629967212677002 0.368536561727523804
0.56347191333770752 0.327594399452209473 0.462699532508850098
0.566830575466156006 0.327660679817199707 0.447380989789962769
0.566398262977600098 0.327993601560592651 0.457032591104507446
0.567692339420318604 0.330112367868423462 0.330734997987747192
0.564306259155273438 0.33442997932434082 0.451014071702957153
0.568486273288726807 0.338627725839614868 0.940269291400909424
0.567543983459472656 0.34047350287437439 0.311575651168823242
0.567438244819641113 0.348298013210296631 0.300357699394226074
0.566273927688598633 0.348621070384979248 0.939719796180725098
0.56885218620300293 0.349425375461578369 0.132468298077583313
0.567384779453277588 0.357026457786560059 0.291125446557998657
0.56716996431350708 0.358678728342056274 0.135345205664634705
0.566544115543365479 0.357825338840484619 0.937593162059783936
0.566409051418304443 0.367459774017333984 0.136057689785957336
0.567237257957458496 0.368070095777511597 0.933715999126434326
0.564201056957244873 0.373393326997756958 0.857217192649841309
0.565417945384979248 0.375818967819213867 0.137711957097053528
0.564650952816009521 0.377226769924163818 0.280156433582305908
0.56793135404586792 0.376183301210403442 0.929650366306304932
0.567845523357391357 0.378595709800720215 0.861141979694366455
0.56650465726852417 0.395734935998916626 0.873900771141052246
0.567684292793273926 0.39706072211265564 0.912836670875549316
0.56363987922668457 0.407382100820541382 0.269681870937347412
0.566809952259063721 0.408177554607391357 0.165246680378913879
0.564401805400848389 0.41650041937828064 0.262542366981506348
0.566270291805267334 0.416559368371963501 0.175070121884346008
0.564924001693725586 0.436981081962585449 0.241034477949142456
0.566438436508178711 0.442681878805160522 0.727115631103515625
0.567681550979614258 0.434874594211578369 0.72797691822052002
0.565712630748748779 0.43485984206199646 0.203719496726989746
0.5635833740234375 0.444582164287567139 0.232412561774253845
0.567069768905639648 0.473866909742355347 0.707736790180206299
0.56753915548324585 0.474480688571929932 0.727552652359008789
0.565880954265594482 0.481409043073654175 0.724882960319519043
0.567041754722595215 0.484605640172958374 0.718078792095184326
0.566930592060089111 0.583424508571624756 0.115293718874454498
0.563547492027282715 0.584666728973388672 0.100782908499240875
0.566635727882385254 0.583954811096191406 0.146039262413978577
0.566552996635437012 0.584823906421661377 0.152384281158447266
0.567738473415374756 0.587396860122680664 0.0969735383987426758
0.567170262336730957 0.589827477931976318 0.261962473392486572
0.566732883453369141 0.590220332145690918 0.0884665325284004211
0.566461563110351562 0.590269386768341064 0.173261687159538269
0.566810727119445801 0.592027246952056885 0.184153631329536438
0.564960479736328125 0.600134074687957764 0.271130889654159546
0.567590117454528809 0.598621726036071777 0.0579571835696697235
0.567175507545471191 0.606502711772918701 0.0382537916302680969
0.56643444299697876 0.609949648380279541 0.252356052398681641
0.566899478435516357 0.620565593242645264 0.0276054404675960541
0.568080306053161621 0.619254589080810547 0.233341097831726074
0.567067503929138184 0.624430000782012939 0.183421984314918518
0.566478192806243896 0.626502156257629395 0.0321867018938064575
0.568490087985992432 0.628819763660430908 0.144127696752548218
0.567542791366577148 0.625844120979309082 0.188397541642189026
0.567319333553314209 0.630572736263275146 0.0373571887612342834
0.567873775959014893 0.627376139163970947 0.195007249712944031
0.566630363464355469 0.629615247249603271 0.204521819949150085
0.56556248664855957 0.630150437355041504 0.212791174650192261
0.564015448093414307 0.635939598083496094 0.103604838252067566
0.567260146141052246 0.637309610843658447 0.09701528400182724
0.567613065242767334 0.641910552978515625 0.0883457362651824951
0.568135380744934082 0.646953284740447998 0.079531349241733551
0.56816178560256958 0.646432876586914062 0.0286022145301103592
0.566974878311157227 0.651834189891815186 0.0694672837853431702
0.566767096519470215 0.654520034790039062 0.0638332739472389221
0.567686975002288818 0.657372891902923584 0.0112346531823277473
0.567439615726470947 0.665514111518859863 0.0103066209703683853
0.567994594573974609 0.664419114589691162 0.0376763492822647095
0.566008865833282471 0.666545271873474121 0.0199847240000963211
0.567599594593048096 0.666211307048797607 0.0288968272507190704
0.566896557807922363 0.677671849727630615 0.21326996386051178
0.56463623046875 0.679989516735076904 0.241501942276954651
0.566805183887481689 0.679169535636901855 0.203756809234619141
0.56693035364151001 0.68288654088973999 0.188675478100776672
0.567166626453399658 0.684300720691680908 0.182959914207458496
0.566680550575256348 0.687413811683654785 0.173283785581588745
0.566754460334777832 0.688670814037322998 0.24297158420085907
0.567273855209350586 0.687816441059112549 0.13805273175239563
0.566368341445922852 0.698491334915161133 0.252403169870376587
0.568573713302612305 0.698172211647033691 0.126696765422821045
0.566437721252441406 0.70412832498550415 0.241972342133522034
0.566826701164245605 0.709829092025756836 0.223512738943099976
0.56649249792098999 0.712662339210510254 0.219213798642158508
0.567004382610321045 0.719089865684509277 0.20403917133808136
0.567678987979888916 0.717017769813537598 0.10671793669462204
0.564630687236785889 0.722261905670166016 0.195455044507980347
0.564912378787994385 0.723440349102020264 0.184043616056442261
0.568162143230438232 0.728237688541412354 0.154975906014442444
0.566808760166168213 0.745497226715087891 0.0793889611959457397
0.567374348640441895 0.745821237564086914 0.115038871765136719
0.563924551010131836 0.755862772464752197 0.116160362958908081
0.566128671169281006 0.765368998050689697 0.0712993070483207703
0.567568421363830566 0.758445560932159424 0.100486360490322113
0.568039238452911377 0.769174456596374512 0.0890542939305305481
0.567008078098297119 0.77142333984375 0.0796202123165130615
0.565346837043762207 0.770721137523651123 0.0856023877859115601
0.568794071674346924 0.157236099243164062 0.311310052871704102
0.564343631267547607 0.15856972336769104 0.359430521726608276
0.569233357906341553 0.156724944710731506 0.408716171979904175
0.567979872226715088 0.154946461319923401 0.417780518531799316
0.567458748817443848 0.155046626925468445 0.425956577062606812
0.56798708438873291 0.15567268431186676 0.435830593109130859
0.568344235420227051 0.158162176609039307 0.763619959354400635
0.567645549774169922 0.161331743001937866 0.232826992869377136
0.568744242191314697 0.174002662301063538 0.466226518154144287
0.567549049854278564 0.179492324590682983 0.6001129150390625
0.567638218402862549 0.19294150173664093 0.888807833194732666
0.568239331245422363 0.201008573174476624 0.152936190366744995
0.568914413452148438 0.204211533069610596 0.731978237628936768
0.568976521492004395 0.209184125065803528 0.735848009586334229
0.568656325340270996 0.232313886284828186 0.481333941221237183
0.566191256046295166 0.259966462850570679 0.123004287481307983
0.568497538566589355 0.269974559545516968 0.928955018520355225
0.567810535430908203 0.291645944118499756 0.469255179166793823
0.565809845924377441 0.308086931705474854 0.120272211730480194
0.565919697284698486 0.306368350982666016 0.644196212291717529
0.567264556884765625 0.315885424613952637 0.661873579025268555
0.56811833381652832 0.320425927639007568 0.359928399324417114
0.569356799125671387 0.344750314950942993 0.847896575927734375
0.567688524723052979 0.387421905994415283 0.271629780530929565
0.568720579147338867 0.387829452753067017 0.92223435640335083
0.568262159824371338 0.399668097496032715 0.718192756175994873
0.567643940448760986 0.40695488452911377 0.727249681949615479
0.570240020751953125 0.400144368410110474 0.727937161922454834
0.567153871059417725 0.406719177961349487 0.261671274900436401
0.568893074989318848 0.409449309110641479 0.700341939926147461
0.566944360733032227 0.417310625314712524 0.252744466066360474
0.566185355186462402 0.425888806581497192 0.242087230086326599
0.568653225898742676 0.426630258560180664 0.728265106678009033
0.566972076892852783 0.426669567823410034 0.194875657558441162
0.566517055034637451 0.435802638530731201 0.232512235641479492
0.567147135734558105 0.435910671949386597 0.212915420532226562
0.568900823593139648 0.465352535247802734 0.706151843070983887
0.567924678325653076 0.596353232860565186 0.0658381208777427673
0.567360103130340576 0.600207746028900146 0.262572318315505981
0.568959295749664307 0.611540555953979492 0.243667364120483398
0.568607687950134277 0.623860418796539307 0.117473848164081573
0.568365097045898438 0.621601700782775879 0.2219095379114151
0.567734479904174805 0.753903627395629883 0.0752358436584472656
0.569683849811553955 0.15220998227596283 0.697217583656311035
0.569886922836303711 0.148543491959571838 0.724519073963165283
0.569454431533813477 0.155445843935012817 0.44527745246887207
0.570009231567382812 0.162089407444000244 0.35134086012840271
0.568961203098297119 0.164882361888885498 0.457802504301071167
0.568459212779998779 0.182327494025230408 0.176093935966491699
0.570113182067871094 0.177604824304580688 0.621944904327392578
0.569622039794921875 0.177424132823944092 0.630629658699035645
0.569601356983184814 0.183623805642127991 0.471834063529968262
0.570228755474090576 0.196892306208610535 0.732330799102783203
0.570455431938171387 0.203541263937950134 0.566895961761474609
0.569318473339080811 0.205719932913780212 0.601920366287231445
0.569571375846862793 0.206219300627708435 0.591580390930175781
0.569339394569396973 0.207137063145637512 0.612864851951599121
0.569426298141479492 0.212314426898956299 0.631071627140045166
0.569657385349273682 0.218418359756469727 0.143619462847709656
0.569356799125671387 0.218851447105407715 0.905848860740661621
0.568394243717193604 0.241064950823783875 0.132634282112121582
0.570048689842224121 0.23780745267868042 0.91621088981628418
0.56946718692779541 0.266579091548919678 0.768396615982055664
0.568914473056793213 0.289456933736801147 0.416160613298416138
0.567810595035552979 0.291696518659591675 0.42399248480796814
0.569822490215301514 0.293005615472793579 0.407628059387207031
0.567063271999359131 0.301403582096099854 0.408865928649902344
0.569708704948425293 0.30189165472984314 0.398797959089279175
0.570015430450439453 0.30719524621963501 0.706112563610076904
0.569168925285339355 0.311506956815719604 0.378651201725006104
0.569649696350097656 0.320581555366516113 0.349389046430587769
0.569365143775939941 0.322260886430740356 0.444264471530914307
0.568067848682403564 0.350854277610778809 0.850000143051147461
0.569701194763183594 0.350876867771148682 0.295058071613311768
0.56985396146774292 0.36136317253112793 0.934636175632476807
0.568841278553009033 0.378468066453933716 0.143798694014549255
0.568817853927612305 0.377861648797988892 0.274916708469390869
0.568500220775604248 0.389292716979980469 0.869617104530334473
0.569432258605957031 0.390048891305923462 0.153722822666168213
0.568069100379943848 0.396392941474914551 0.262343496084213257
0.568835794925689697 0.398558378219604492 0.881843626499176025
0.569703280925750732 0.399918496608734131 0.163315504789352417
0.569524109363555908 0.401047855615615845 0.893634140491485596
0.569963395595550537 0.399874299764633179 0.902911067008972168
0.568269252777099609 0.417114198207855225 0.184131532907485962
0.568356335163116455 0.416937440633773804 0.243383541703224182
0.567982256412506104 0.426443696022033691 0.203576117753982544
0.568760931491851807 0.425741523504257202 0.232259869575500488
0.567521929740905762 0.43612179160118103 0.221817225217819214
0.570216119289398193 0.456872522830963135 0.704463183879852295
0.569366753101348877 0.585300266742706299 0.233275294303894043
0.569692790508270264 0.601027727127075195 0.254748821258544922
0.569615840911865234 0.623403728008270264 0.131176397204399109
0.568822860717773438 0.621940493583679199 0.213676512241363525
0.570322990417480469 0.631422221660614014 0.099949665367603302
0.569519460201263428 0.698584675788879395 0.244050353765487671
0.568476319313049316 0.709210455417633057 0.117097720503807068
0.569477677345275879 0.72000807523727417 0.0979398787021636963
0.569583237171173096 0.719914793968200684 0.173888742923736572
0.569383203983306885 0.720410704612731934 0.183181881904602051
0.568957686424255371 0.720808446407318115 0.195111334323883057
0.57005000114440918 0.749160230159759521 0.107344985008239746
0.569335341453552246 0.769341409206390381 0.0731499940156936646
0.569720804691314697 0.158562377095222473 0.775532662868499756
0.570186376571655273 0.160017281770706177 0.243855416774749756
0.570272386074066162 0.160959064960479736 0.252986997365951538
0.570013880729675293 0.160656586289405823 0.342244595289230347
0.570645749568939209 0.160449862480163574 0.686555981636047363
0.569924294948577881 0.16897505521774292 0.202036768198013306
0.570306777954101562 0.177565053105354309 0.613781630992889404
0.571076393127441406 0.215068086981773376 0.480352550745010376
0.570599079132080078 0.219607606530189514 0.629718780517578125
0.570606112480163574 0.221064969897270203 0.481159329414367676
0.570216119289398193 0.263403654098510742 0.926895678043365479
0.569986164569854736 0.298634707927703857 0.12162645161151886
0.570645749568939209 0.310235172510147095 0.93963390588760376
0.570651531219482422 0.311901211738586426 0.459387034177780151
0.569859027862548828 0.318608641624450684 0.455456376075744629
0.569123625755310059 0.316518336534500122 0.69452434778213501
0.568832814693450928 0.36136317253112793 0.285531193017959595
0.570496618747711182 0.386960327625274658 0.264636099338531494
0.569788694381713867 0.399108320474624634 0.256277382373809814
0.569171369075775146 0.408251196146011353 0.253452003002166748
0.57063060998916626 0.40839850902557373 0.174786344170570374
0.570554196834564209 0.411148250102996826 0.24461209774017334
0.57015681266784668 0.416225463151931763 0.19425007700920105
0.570238173007965088 0.418052077293395996 0.235839918255805969
0.570028245449066162 0.41826319694519043 0.203038960695266724
0.569568812847137451 0.42447468638420105 0.213591575622558594
0.570245146751403809 0.42535361647605896 0.221456810832023621
0.57016301155090332 0.476503729820251465 0.713429749011993408
0.570449888706207275 0.622033834457397461 0.204869478940963745
0.570529580116271973 0.682734370231628418 0.13929256796836853
0.570409297943115234 0.68841552734375 0.233533084392547607
0.570314645767211914 0.689510524272918701 0.129916906356811523
0.571149706840515137 0.158532902598381042 0.305133908987045288
0.576133966445922852 0.154121041297912598 0.456309795379638672
0.570871114730834961 0.160168513655662537 0.261900603771209717
0.571075439453125 0.160337910056114197 0.331230908632278442
0.572830796241760254 0.162184655666351318 0.396762639284133911
0.571099638938903809 0.165910065174102783 0.462852209806442261
0.576008260250091553 0.170473173260688782 0.679927170276641846
0.573243260383605957 0.194483816623687744 0.570099472999572754
0.572442412376403809 0.197937190532684326 0.734850764274597168
0.571066439151763916 0.210205972194671631 0.637412190437316895
0.57293391227722168 0.213583245873451233 0.640578866004943848
0.576048016548156738 0.212805464863777161 0.736698925495147705
0.575719535350799561 0.231619089841842651 0.485105574131011963
0.575476944446563721 0.241356596350669861 0.482480078935623169
0.57435840368270874 0.241815224289894104 0.137132525444030762
0.57571709156036377 0.260137349367141724 0.709963202476501465
0.571084022521972656 0.265192955732345581 0.761995613574981689
0.572158098220825195 0.280782490968704224 0.417963653802871704
0.570586740970611572 0.284886002540588379 0.423877567052841187
0.571859598159790039 0.288885414600372314 0.405750364065170288
0.571223676204681396 0.293192654848098755 0.711450457572937012
0.571075439453125 0.302931159734725952 0.432099759578704834
0.572399735450744629 0.301498860120773315 0.387622714042663574
0.571294426918029785 0.308946222066879272 0.375133991241455078
0.57074272632598877 0.312597483396530151 0.371460586786270142
0.576122164726257324 0.310408502817153931 0.831290125846862793
0.572705626487731934 0.309811919927597046 0.368809551000595093
0.574705541133880615 0.320700377225875854 0.339583247900009155
0.572139918804168701 0.322929173707962036 0.688110530376434326
0.576027870178222656 0.326128214597702026 0.689658761024475098
0.572036802768707275 0.330711454153060913 0.129939004778862
0.571075439453125 0.331833422183990479 0.323340147733688354
0.572618722915649414 0.367268741130828857 0.14587576687335968
0.570152580738067627 0.37167474627494812 0.142888322472572327
0.572260737419128418 0.385664045810699463 0.15585191547870636
0.572545528411865234 0.385993003845214844 0.261099725961685181
0.573590934276580811 0.396294713020324707 0.729611039161682129
0.575781881809234619 0.406891047954559326 0.699499845504760742
0.573616981506347656 0.402923583984375 0.703924000263214111
0.571075439453125 0.41120225191116333 0.185544192790985107
0.575612008571624756 0.416927605867385864 0.698038101196289062
0.570680499076843262 0.418179750442504883 0.21203206479549408
0.571962177753448486 0.415498733520507812 0.233410820364952087
0.575421988964080811 0.623452842235565186 0.125114724040031433
0.575910508632659912 0.620722770690917969 0.154429882764816284
0.575565814971923828 0.620030462741851807 0.165230497717857361
0.57113724946975708 0.624616563320159912 0.198446869850158691
0.576390266418457031 0.626320481300354004 0.107292927801609039
0.57604902982711792 0.638615787029266357 0.136028707027435303
0.575771093368530273 0.660957396030426025 0.00154670828487724066
0.572015702724456787 0.680662274360656738 0.220893129706382751
