ply
format ascii 1.0
element vertex 761
property float x
property float y
property float z
end_header
0.646059095859527588 0.573855817317962646 0.566679179668426514
0.633966684341430664 0.573419928550720215 0.584449410438537598
0.61921536922454834 0.574523210525512695 0.599242866039276123
0.616614103317260742 0.576200604438781738 0.610451757907867432
0.45755922794342041 0.577589809894561768 0.623240292072296143
0.457350641489028931 0.576095163822174072 0.642341971397399902
0.492387652397155762 0.575525224208831787 0.643617868423461914
0.520921945571899414 0.574347734451293945 0.638995528221130371
0.55457913875579834 0.575228571891784668 0.709929764270782471
0.572210311889648438 0.574278533458709717 0.743247687816619873
0.47580641508102417 0.574532270431518555 0.745789229869842529
0.49126964807510376 0.572568774223327637 0.778140127658843994
0.582403123378753662 0.57664024829864502 0.791343808174133301
0.52051091194152832 0.577610611915588379 0.840467691421508789
0.54891502857208252 0.575064659118652344 0.857225358486175537
0.564867019653320312 0.576183080673217773 0.855124354362487793
0.331615209579467773 0.575678467750549316 0.0390960909426212311
0.490437835454940796 0.576495707035064697 0.379990309476852417
0.632289409637451172 0.575328588485717773 0.47258293628692627
0.549984991550445557 0.576324224472045898 0.641537010669708252
0.473322093486785889 0.572575867176055908 0.763746798038482666
0.504587888717651367 0.576380610466003418 0.762324094772338867
0.491505473852157593 0.574341237545013428 0.762000083923339844
0.501978874206542969 0.577905595302581787 0.775178492069244385
0.474643468856811523 0.572213709354400635 0.778686940670013428
0.504888176918029785 0.575945019721984863 0.637826025485992432
0.53646618127822876 0.576319694519042969 0.638023436069488525
0.563033998012542725 0.57665097713470459 0.643248260021209717
0.47429010272026062 0.57697761058807373 0.644589900970458984
0.579964876174926758 0.576552808284759521 0.645080924034118652
0.48931846022605896 0.577389299869537354 0.791075527667999268
0.548814773559570312 0.577332198619842529 0.302398592233657837
0.472349554300308228 0.576021373271942139 0.365171641111373901
0.52445685863494873 0.577972590923309326 0.395016521215438843
0.567758083343505859 0.577902495861053467 0.407632887363433838
0.488051533699035645 0.578083932399749756 0.749545812606811523
0.475743114948272705 0.577939391136169434 0.377246290445327759
0.521341443061828613 0.576711356639862061 0.629396557807922363
0.351872801780700684 0.586743414402008057 0.00844062492251396179
0.36810651421546936 0.586559593677520752 0.0137544898316264153
0.323352813720703125 0.58553391695022583 0.0174335893243551254
0.333197325468063354 0.589450955390930176 0.032033037394285202
0.62248539924621582 0.582399964332580566 0.0452630259096622467
0.383413732051849365 0.588823676109313965 0.0461171083152294159
0.676343441009521484 0.586052298545837402 0.10705440491437912
0.668760478496551514 0.58565133810043335 0.13650493323802948
0.336413174867630005 0.586795032024383545 0.148045465350151062
0.659084022045135498 0.585649371147155762 0.150771737098693848
0.642644762992858887 0.584513545036315918 0.150502413511276245
0.365910798311233521 0.587532162666320801 0.167650461196899414
0.411268472671508789 0.585901975631713867 0.178615331649780273
0.456770956516265869 0.581835627555847168 0.289564520120620728
0.563803672790527344 0.583686172962188721 0.319247424602508545
0.537171542644500732 0.581155002117156982 0.318366497755050659
0.53950124979019165 0.583369255065917969 0.333691447973251343
0.45437324047088623 0.580614984035491943 0.331023365259170532
0.4492836594581604 0.58190310001373291 0.350196033716201782
0.541755020618438721 0.581807732582092285 0.343720734119415283
0.447173506021499634 0.585614383220672607 0.362159281969070435
0.566274106502532959 0.585373878479003906 0.381574928760528564
0.446375608444213867 0.584128141403198242 0.442570984363555908
0.624312043190002441 0.584501922130584717 0.456549197435379028
0.429425030946731567 0.585472643375396729 0.468826353549957275
0.44158625602722168 0.577653884887695312 0.476547062397003174
0.638086259365081787 0.584698855876922607 0.501395106315612793
0.432449519634246826 0.583458960056304932 0.565504670143127441
0.629130244255065918 0.589591681957244873 0.579963862895965576
0.506120204925537109 0.578238070011138916 0.628824472427368164
0.533316314220428467 0.577397406101226807 0.630069851875305176
0.60722881555557251 0.581284701824188232 0.633355617523193359
0.481732755899429321 0.580052018165588379 0.647374451160430908
0.538139641284942627 0.5808449387550354 0.707580626010894775
0.505204141139984131 0.583720564842224121 0.718045294284820557
0.485357284545898438 0.578596174716949463 0.727087438106536865
0.493198305368423462 0.580891072750091553 0.794472634792327881
0.504231512546539307 0.578731238842010498 0.811169564723968506
0.584925353527069092 0.578143119812011719 0.837703406810760498
0.659645974636077881 0.584962308406829834 0.00408261409029364586
0.677454710006713867 0.586104452610015869 0.0152641935274004936
0.374204099178314209 0.582628071308135986 0.0271657053381204605
0.625016272068023682 0.585409343242645264 0.0304666198790073395
0.335911452770233154 0.588306248188018799 0.0427321530878543854
0.327032417058944702 0.585073173046112061 0.0504984110593795776
0.670972347259521484 0.584845900535583496 0.045673612505197525
0.611985266208648682 0.587138772010803223 0.0558006204664707184
0.683218657970428467 0.585685253143310547 0.0613833218812942505
0.595380425453186035 0.583771944046020508 0.0571797192096710205
0.320994079113006592 0.586681604385375977 0.0595050528645515442
0.412187367677688599 0.586134850978851318 0.0583127662539482117
0.519866764545440674 0.584710955619812012 0.0581365711987018585
0.687004566192626953 0.586746931076049805 0.0742988884449005127
0.683096110820770264 0.584771990776062012 0.099590398371219635
0.321252793073654175 0.585875630378723145 0.10448707640171051
0.670432150363922119 0.581251263618469238 0.11339094489812851
0.661264002323150635 0.587143361568450928 0.119788743555545807
0.337045520544052124 0.587351441383361816 0.13505949079990387
0.668699681758880615 0.585698425769805908 0.146010220050811768
0.488941818475723267 0.586594521999359131 0.149606287479400635
0.505781769752502441 0.588407516479492188 0.149795159697532654
0.521666288375854492 0.584987640380859375 0.149784520268440247
0.629186451435089111 0.587077021598815918 0.150805652141571045
0.44356122612953186 0.585436165332794189 0.150604188442230225
0.534738540649414062 0.587800979614257812 0.150123700499534607
0.613163888454437256 0.587207674980163574 0.150704935193061829
0.348154723644256592 0.586473524570465088 0.154330849647521973
0.42152106761932373 0.581778049468994141 0.164441660046577454
0.458455860614776611 0.58007436990737915 0.277869552373886108
0.458227008581161499 0.581998348236083984 0.301593601703643799
0.457111179828643799 0.58129650354385376 0.316786915063858032
0.57447350025177002 0.581248283386230469 0.337098658084869385
0.548746049404144287 0.586245238780975342 0.349826425313949585
0.457451909780502319 0.58549189567565918 0.381215453147888184
0.553687870502471924 0.586390018463134766 0.380825668573379517
0.487717986106872559 0.579660713672637939 0.388156533241271973
0.504609644412994385 0.57873302698135376 0.39015120267868042
0.505893468856811523 0.582238078117370605 0.396499931812286377
0.518972098827362061 0.581983029842376709 0.39870220422744751
0.562185764312744141 0.587957918643951416 0.395487368106842041
0.539274096488952637 0.579837381839752197 0.40371432900428772
0.551553308963775635 0.585740983486175537 0.39816051721572876
0.447945564985275269 0.585218489170074463 0.409880787134170532
0.447809398174285889 0.583642721176147461 0.425352513790130615
0.577901601791381836 0.583582758903503418 0.428602814674377441
0.596391975879669189 0.580865740776062012 0.432475864887237549
0.609727799892425537 0.586404681205749512 0.443735420703887939
0.622854471206665039 0.581308305263519287 0.446524977684020996
0.623505532741546631 0.582695126533508301 0.471494466066360474
0.446141213178634644 0.585757672786712646 0.485766291618347168
0.440794438123703003 0.588590800762176514 0.499066144227981567
0.434579402208328247 0.582046627998352051 0.50249868631362915
0.432189792394638062 0.58549797534942627 0.516466856002807617
0.431018263101577759 0.58716052770614624 0.531452596187591553
0.643152534961700439 0.587869822978973389 0.530288159847259521
0.643823862075805664 0.587668836116790771 0.547820508480072021
0.637519240379333496 0.582214653491973877 0.574769437313079834
0.441017210483551025 0.587971091270446777 0.578404486179351807
0.612887978553771973 0.588880360126495361 0.596286177635192871
0.60887068510055542 0.585138976573944092 0.609915077686309814
0.462357193231582642 0.584786117076873779 0.607803940773010254
0.506441652774810791 0.585495412349700928 0.623746514320373535
0.520837843418121338 0.585099995136260986 0.624212265014648438
0.536417722702026367 0.587938189506530762 0.624252796173095703
0.489993870258331299 0.587405622005462646 0.637608349323272705
0.593567490577697754 0.584490299224853516 0.635001003742218018
0.579949676990509033 0.584562122821807861 0.638924658298492432
0.462177962064743042 0.581684112548828125 0.638251304626464844
0.477796196937561035 0.58283001184463501 0.637846291065216064
0.565597057342529297 0.585269629955291748 0.637977898120880127
0.550610065460205078 0.58541339635848999 0.716982126235961914
0.560887813568115234 0.582356393337249756 0.723280191421508789
0.562997341156005859 0.585239231586456299 0.73202359676361084
0.491317838430404663 0.582625687122344971 0.742538928985595703
0.565751254558563232 0.586536824703216553 0.747480154037475586
0.52050858736038208 0.583617985248565674 0.746376454830169678
0.505464732646942139 0.583259642124176025 0.746361255645751953
0.572550952434539795 0.578197240829467773 0.766298413276672363
0.507303059101104736 0.583880424499511719 0.776297330856323242
0.573758959770202637 0.580697119235992432 0.78140568733215332
0.587749898433685303 0.579105794429779053 0.808131873607635498
0.520323991775512695 0.58135986328125 0.822580993175506592
0.587782800197601318 0.579429030418395996 0.822297453880310059
0.513057589530944824 0.578660786151885986 0.827866494655609131
0.521183192729949951 0.580872535705566406 0.833617746829986572
0.564620792865753174 0.580837666988372803 0.847256839275360107
0.673443973064422607 0.587987840175628662 0.00284881656989455223
0.639636993408203125 0.584263265132904053 0.00922990590333938599
0.336506366729736328 0.586690247058868408 0.0111036300659179688
0.628514647483825684 0.589033305644989014 0.0176654569804668427
0.670214474201202393 0.58705371618270874 0.0284491237252950668
0.325751036405563354 0.586373329162597656 0.0259445831179618835
0.378704369068145752 0.588446497917175293 0.0312969237565994263
0.38534468412399292 0.583490252494812012 0.0557672195136547089
0.44314911961555481 0.585094988346099854 0.0584474280476570129
0.551999688148498535 0.585238754749298096 0.0583193488419055939
0.312486618757247925 0.582505285739898682 0.0758572369813919067
0.68644869327545166 0.586776316165924072 0.0909371450543403625
0.312778234481811523 0.584127187728881836 0.0893322527408599854
0.328575044870376587 0.581016898155212402 0.113270431756973267
0.337921380996704102 0.586145997047424316 0.118267364799976349
0.66180419921875 0.58777463436126709 0.129706650972366333
0.461886852979660034 0.585410356521606445 0.149948522448539734
0.580356240272521973 0.585991561412811279 0.150589480996131897
0.425612777471542358 0.585883200168609619 0.152347281575202942
0.354358106851577759 0.58543163537979126 0.162900596857070923
0.416910409927368164 0.588213622570037842 0.166587769985198975
0.383046180009841919 0.584043025970458984 0.176598876714706421
0.395200341939926147 0.587299764156341553 0.179662346839904785
0.553915202617645264 0.580178618431091309 0.306215882301330566
0.560491383075714111 0.580102026462554932 0.306787997484207153
0.550900757312774658 0.582304000854492188 0.318204492330551147
0.546496748924255371 0.579511821269989014 0.313207566738128662
0.567694306373596191 0.586273074150085449 0.331671416759490967
0.574918448925018311 0.585226058959960938 0.346925467252731323
0.576352536678314209 0.587476491928100586 0.364285647869110107
0.552955269813537598 0.587720990180969238 0.363597124814987183
0.566304683685302734 0.59042656421661377 0.362508624792098999
0.445839464664459229 0.585947513580322266 0.379301756620407104
0.473583847284317017 0.580165982246398926 0.386404812335968018
0.475673258304595947 0.582224905490875244 0.396418899297714233
0.531611442565917969 0.580939292907714844 0.40207400918006897
0.447058588266372681 0.585461020469665527 0.397431463003158569
0.549547076225280762 0.579872727394104004 0.404372483491897583
0.54800039529800415 0.58777010440826416 0.411683082580566406
0.563188374042510986 0.585942447185516357 0.413520902395248413
0.443230122327804565 0.58794933557510376 0.456873208284378052
0.427279949188232422 0.582925915718078613 0.45855402946472168
0.44424775242805481 0.58702540397644043 0.471798211336135864
0.62764585018157959 0.587760508060455322 0.487351000308990479
0.640595853328704834 0.587289631366729736 0.515773296356201172
0.430942833423614502 0.585988521575927734 0.548559665679931641
0.639707863330841064 0.587694168090820312 0.564264237880706787
0.447296023368835449 0.585378468036651611 0.592468857765197754
0.624097883701324463 0.583034038543701172 0.58990710973739624
0.611465334892272949 0.585482776165008545 0.62512362003326416
0.461536526679992676 0.582349598407745361 0.628292858600616455
0.490580260753631592 0.586968660354614258 0.625771641731262207
0.550149023532867432 0.585880696773529053 0.625321030616760254
0.554791569709777832 0.581402361392974854 0.635492086410522461
0.48560449481010437 0.580362498760223389 0.649267852306365967
0.519706010818481445 0.584790170192718506 0.714951992034912109
0.534131050109863281 0.587579250335693359 0.715691149234771729
0.503835797309875488 0.579329311847686768 0.710922002792358398
0.492793291807174683 0.584843814373016357 0.732109665870666504
0.520737349987030029 0.586782395839691162 0.762212753295898438
0.510203719139099121 0.583604216575622559 0.765498518943786621
0.564517855644226074 0.58787691593170166 0.763589799404144287
0.56651073694229126 0.585157215595245361 0.777628779411315918
0.508108794689178467 0.584430098533630371 0.791394412517547607
0.576232254505157471 0.582018435001373291 0.793222129344940186
0.579946160316467285 0.582428395748138428 0.807559788227081299
0.522261500358581543 0.585809290409088135 0.804993033409118652
0.578416705131530762 0.581592738628387451 0.835784614086151123
0.535129904747009277 0.582373142242431641 0.837019920349121094
0.549579322338104248 0.581417381763458252 0.847585916519165039
0.458598107099533081 0.588017702102661133 0.0585228689014911652
0.475630223751068115 0.585301041603088379 0.0581816472113132477
0.489147394895553589 0.586748480796813965 0.0581624098122119904
0.505703330039978027 0.58575516939163208 0.0581178441643714905
0.535402774810791016 0.585899412631988525 0.0582818910479545593
0.563753962516784668 0.587601006031036377 0.0583446584641933441
0.581569254398345947 0.586201190948486328 0.0579092688858509064
0.564996540546417236 0.587261795997619629 0.150632515549659729
0.45624089241027832 0.582498013973236084 0.366462618112564087
0.461532473564147949 0.585030138492584229 0.397385895252227783
0.491605013608932495 0.583416283130645752 0.397902309894561768
0.47751954197883606 0.583426773548126221 0.623518764972686768
0.495153278112411499 0.582770287990570068 0.72254103422164917
0.535089790821075439 0.584014594554901123 0.746943533420562744
0.495155006647109985 0.582123935222625732 0.80387413501739502
0.505596041679382324 0.582547545433044434 0.803494453430175781
0.54979938268661499 0.586535334587097168 0.150314077734947205
0.550567924976348877 0.584907650947570801 0.333443373441696167
0.472248286008834839 0.590119242668151855 0.611757934093475342
0.57928091287612915 0.58319854736328125 0.822687268257141113
0.536348104476928711 0.584230124950408936 0.821340560913085938
0.563907384872436523 0.584720790386199951 0.835941553115844727
0.396214902400970459 0.588329017162322998 0.0578404106199741364
0.462104052305221558 0.586535811424255371 0.411961525678634644
0.474344253540039062 0.585541486740112305 0.411399573087692261
0.534566700458526611 0.587263822555541992 0.412037491798400879
0.580447852611541748 0.587887585163116455 0.436399459838867188
0.595958590507507324 0.587469398975372314 0.438044816255569458
0.454394489526748657 0.58899378776550293 0.597202539443969727
0.565563619136810303 0.586002171039581299 0.791931092739105225
0.534382641315460205 0.587807595729827881 0.808319211006164551
0.549537122249603271 0.584893465042114258 0.835926413536071777
0.661912083625793457 0.591602087020874023 0.0348889455199241638
0.616556882858276367 0.590588033199310303 0.0460275039076805115
0.425309509038925171 0.587572157382965088 0.058535013347864151
0.576760590076446533 0.588366508483886719 0.376213490962982178
0.520232558250427246 0.589466631412506104 0.411445140838623047
0.568648397922515869 0.588569521903991699 0.424658894538879395
0.459997951984405518 0.587828338146209717 0.427767455577850342
0.561745822429656982 0.588909745216369629 0.626495659351348877
0.516416192054748535 0.589817464351654053 0.795161128044128418
0.564411938190460205 0.585435152053833008 0.807382583618164062
0.549308240413665771 0.585375428199768066 0.807590186595916748
0.564365506172180176 0.5855141282081604 0.820034384727478027
0.6636810302734375 0.589542567729949951 0.0418725050985813141
0.315740972757339478 0.589745104312896729 0.076158963143825531
0.474038481712341309 0.589260101318359375 0.149886786937713623
0.594749629497528076 0.58943021297454834 0.150541916489601135
0.380524426698684692 0.590604722499847412 0.171175137162208557
0.490213721990585327 0.587546825408935547 0.40953141450881958
0.506141364574432373 0.589833199977874756 0.410214930772781372
0.613514721393585205 0.591982841491699219 0.455880939960479736
0.613706052303314209 0.591088235378265381 0.470542639493942261
0.438661009073257446 0.591055333614349365 0.566385567188262939
0.505914509296417236 0.586703896522521973 0.733922123908996582
0.522004485130310059 0.587322592735290527 0.730985701084136963
0.536420643329620361 0.589327394962310791 0.733208239078521729
0.535622358322143555 0.588563978672027588 0.762673497200012207
0.549194693565368652 0.5860634446144104 0.793758749961853027
0.550100803375244141 0.585957646369934082 0.820935606956481934
0.647850275039672852 0.592380762100219727 0.00550727685913443565
0.678491592407226562 0.589791178703308105 0.056657254695892334
0.315570861101150513 0.589567899703979492 0.090873323380947113
0.47747492790222168 0.590421974658966064 0.42829403281211853
0.631885945796966553 0.592203080654144287 0.500519216060638428
0.55224078893661499 0.591345429420471191 0.7483711838722229
0.520253181457519531 0.590353131294250488 0.777066826820373535
0.538102388381958008 0.591094315052032471 0.791738748550415039
0.564082682132720947 0.591262400150299072 0.349684685468673706
0.460265785455703735 0.590776383876800537 0.44206470251083374
0.456854492425918579 0.592559993267059326 0.471869111061096191
0.595550060272216797 0.591504395008087158 0.608381092548370361
0.593309283256530762 0.590169370174407959 0.6251944899559021
0.547905683517456055 0.592012703418731689 0.732403278350830078
0.550194382667541504 0.592366576194763184 0.775679647922515869
0.331307411193847656 0.590500950813293457 0.111920192837715149
0.45519644021987915 0.592680454254150391 0.482465386390686035
0.579737067222595215 0.59090954065322876 0.625346362590789795
0.550662517547607422 0.593773007392883301 0.764156877994537354
0.535637021064758301 0.592419207096099854 0.777370631694793701
0.416954964399337769 0.591791450977325439 0.154468074440956116
0.490029275417327881 0.593316376209259033 0.426041066646575928
0.473552465438842773 0.591747939586639404 0.438439756631851196
0.585211396217346191 0.59269869327545166 0.6131553053855896
0.547035157680511475 0.593614041805267334 0.422421187162399292
0.534506738185882568 0.593724429607391357 0.422633856534957886
0.659855067729949951 0.600267529487609863 0.00295311352238059044
0.670240283012390137 0.601674437522888184 0.0131165813654661179
0.340672492980957031 0.602933585643768311 0.00484100216999650002
0.351503729820251465 0.602785706520080566 0.00540196150541305542
0.626118898391723633 0.600447237491607666 0.0132072046399116516
0.639277517795562744 0.60054546594619751 0.00774043938145041466
0.333514273166656494 0.604779958724975586 0.0114959981292486191
0.366387695074081421 0.600701391696929932 0.00805838499218225479
0.327475398778915405 0.595620930194854736 0.0174659918993711472
0.379547834396362305 0.600506961345672607 0.0144420014694333076
0.620989859104156494 0.596235513687133789 0.0219758842140436172
0.3860301673412323 0.597755372524261475 0.0265181958675384521
0.337857097387313843 0.602068305015563965 0.029198402538895607
0.611764013767242432 0.602767467498779297 0.0306185018271207809
0.658919453620910645 0.602987706661224365 0.0311718601733446121
0.617197871208190918 0.595101475715637207 0.0347122438251972198
0.659097194671630859 0.602798879146575928 0.0451060682535171509
0.33872637152671814 0.600073635578155518 0.0477928780019283295
0.609143555164337158 0.600382447242736816 0.0452949181199073792
0.66768413782119751 0.596991419792175293 0.0491294451057910919
0.39733123779296875 0.604248881340026855 0.0463753044605255127
0.674170017242431641 0.600777864456176758 0.0595045424997806549
0.325620949268341064 0.599095463752746582 0.0623817034065723419
0.400221556425094604 0.600804686546325684 0.0559408664703369141
0.606292665004730225 0.596127212047576904 0.0556771047413349152
0.413219153881072998 0.602005064487457275 0.0579401440918445587
0.429211884737014771 0.599490880966186523 0.0586458928883075714
0.443626552820205688 0.603393256664276123 0.0589673854410648346
0.461328953504562378 0.601073026657104492 0.059052933007478714
0.475725889205932617 0.60123145580291748 0.0590023137629032135
0.490914136171340942 0.601705849170684814 0.0589694008231163025
0.520404636859893799 0.602212131023406982 0.0590696446597576141
0.5373649001121521 0.60271841287612915 0.0590342059731483459
0.550190508365631104 0.600018441677093506 0.0589223280549049377
0.566204547882080078 0.603400826454162598 0.058350730687379837
0.322418749332427979 0.601869344711303711 0.0750380605459213257
0.681931674480438232 0.597488582134246826 0.0749818533658981323
0.682086646556854248 0.59789663553237915 0.0879820138216018677
0.3219413161277771 0.601036548614501953 0.0915294662117958069
0.326009243726730347 0.599321305751800537 0.101703576743602753
0.670877218246459961 0.600852787494659424 0.104475952684879303
0.334271639585494995 0.603019654750823975 0.108582839369773865
0.340928137302398682 0.600989460945129395 0.11401820182800293
0.65535736083984375 0.599641263484954834 0.117866925895214081
0.349404722452163696 0.601134240627288818 0.121072143316268921
0.349296867847442627 0.603570938110351562 0.132458776235580444
0.656772911548614502 0.602204501628875732 0.134207457304000854
0.341302782297134399 0.598913729190826416 0.137750342488288879
0.658162117004394531 0.60172504186630249 0.14798775315284729
0.342164993286132812 0.598727405071258545 0.147774592041969299
0.428277283906936646 0.600137889385223389 0.150911986827850342
0.446005016565322876 0.602025806903839111 0.150676041841506958
0.459131211042404175 0.602056205272674561 0.150605171918869019
0.473405629396438599 0.602223753929138184 0.150381892919540405
0.519950449466705322 0.600236117839813232 0.15020473301410675
0.536452531814575195 0.601574182510375977 0.150468498468399048
0.550126373767852783 0.59873199462890625 0.15068468451499939
0.596791923046112061 0.602662205696105957 0.150768190622329712
0.351633340120315552 0.602484524250030518 0.151691138744354248
0.56394428014755249 0.600229024887084961 0.150947928428649902
0.581973254680633545 0.601178288459777832 0.150899842381477356
0.629065454006195068 0.601366639137268066 0.150880604982376099
0.645115852355957031 0.600401699542999268 0.150837555527687073
0.413050055503845215 0.602767467498779297 0.152465730905532837
0.355838954448699951 0.596147418022155762 0.159226015210151672
0.409685373306274414 0.599082350730895996 0.165061861276626587
0.368003755807876587 0.602070391178131104 0.162189751863479614
0.381810873746871948 0.603341102600097656 0.166564986109733582
0.391279220581054688 0.594986081123352051 0.173590078949928284
0.407457232475280762 0.596134305000305176 0.174118116497993469
0.399327993392944336 0.596019387245178223 0.175781220197677612
0.553956687450408936 0.59556877613067627 0.372350603342056274
0.575130581855773926 0.595344483852386475 0.37229996919631958
0.553412377834320068 0.598787665367126465 0.383529156446456909
0.575303375720977783 0.596436560153961182 0.383108943700790405
0.552202403545379639 0.599521756172180176 0.397942811250686646
0.565930306911468506 0.602853059768676758 0.39816051721572876
0.55362999439239502 0.603077828884124756 0.410468012094497681
0.563004910945892334 0.603937506675720215 0.412680476903915405
0.52071678638458252 0.60265815258026123 0.426466315984725952
0.564003169536590576 0.601066946983337402 0.427200436592102051
0.474944204092025757 0.601986825466156006 0.440758496522903442
0.569549977779388428 0.602954328060150146 0.437093079090118408
0.580117285251617432 0.600441694259643555 0.440723061561584473
0.595204770565032959 0.601958990097045898 0.442581087350845337
0.605986893177032471 0.596496760845184326 0.445659220218658447
0.463082700967788696 0.60119551420211792 0.446388274431228638
0.452330410480499268 0.593396365642547607 0.455718874931335449
0.605424463748931885 0.598343193531036377 0.472866445779800415
0.463495820760726929 0.595803678035736084 0.469682008028030396
0.46112746000289917 0.600810229778289795 0.486520707607269287
0.44739222526550293 0.598938524723052979 0.501962065696716309
0.625371158123016357 0.60104668140411377 0.504078269004821777
0.629011273384094238 0.601862788200378418 0.51769709587097168
0.438976913690567017 0.593478858470916748 0.511444628238677979
0.443785011768341064 0.602600455284118652 0.516522586345672607
0.441464245319366455 0.601229429244995117 0.529503464698791504
0.443951070308685303 0.602694571018218994 0.547926783561706543
0.438556194305419922 0.594921767711639404 0.554412186145782471
0.446902155876159668 0.601498782634735107 0.564026296138763428
0.628749549388885498 0.60173875093460083 0.563601016998291016
0.622977495193481445 0.600224494934082031 0.576409876346588135
0.449311494827270508 0.597971081733703613 0.578181803226470947
0.60770726203918457 0.598848462104797363 0.593375086784362793
0.460504233837127686 0.600642681121826172 0.591694235801696777
0.592406570911407471 0.598157346248626709 0.604315698146820068
0.476428091526031494 0.59933847188949585 0.607728004455566406
0.580076754093170166 0.601385891437530518 0.609991073608398438
0.486017704010009766 0.603468179702758789 0.611236453056335449
0.492435693740844727 0.600272059440612793 0.624070525169372559
0.566662073135375977 0.602053642272949219 0.62225806713104248
0.505366683006286621 0.596170246601104736 0.619225502014160156
0.521578431129455566 0.600148558616638184 0.618572413921356201
0.549751818180084229 0.599051952362060547 0.61921536922454834
0.535684525966644287 0.600455880165100098 0.61900782585144043
0.573929429054260254 0.598944604396820068 0.628080248832702637
0.570068180561065674 0.598064184188842773 0.63371509313583374
0.574259698390960693 0.596364140510559082 0.634398519992828369
0.52159041166305542 0.597107827663421631 0.782291650772094727
0.521706044673919678 0.597116947174072266 0.792047500610351562
0.531367659568786621 0.596693694591522217 0.793060064315795898
0.670153200626373291 0.600297391414642334 0.00435346551239490509
0.578721463680267334 0.600334823131561279 0.0577978827059268951
0.596511483192443848 0.602792799472808838 0.0556897632777690887
0.49052739143371582 0.602655112743377686 0.150215357542037964
0.504407763481140137 0.603027701377868652 0.150253832340240479
0.612396895885467529 0.600235641002655029 0.150813266634941101
0.507303893566131592 0.600899875164031982 0.426911860704421997
0.553624808788299561 0.602468311786651611 0.428415477275848389
0.494232326745986938 0.59600520133972168 0.430835485458374023
0.490585178136825562 0.602034389972686768 0.437614500522613525
0.605404198169708252 0.597876906394958496 0.456194847822189331
0.462241262197494507 0.601039111614227295 0.455268353223800659
0.618115723133087158 0.595057964324951172 0.483113408088684082
0.637085855007171631 0.597204029560089111 0.55000758171081543
0.677157998085021973 0.604636669158935547 0.090826772153377533
0.397280603647232056 0.60298621654510498 0.169956013560295105
0.569060802459716797 0.595962643623352051 0.366766393184661865
0.565283000469207764 0.600309014320373535 0.380309253931045532
0.612081944942474365 0.603683829307556152 0.486272573471069336
0.621580660343170166 0.597275972366333008 0.489477306604385376
0.636139154434204102 0.597352921962738037 0.529741406440734863
0.465600401163101196 0.596391499042510986 0.601941287517547607
0.532283246517181396 0.596924066543579102 0.781486630439758301
0.38976597785949707 0.598950207233428955 0.0421408303081989288
0.506228983402252197 0.60157930850982666 0.0589734576642513275
0.533813655376434326 0.59955364465713501 0.430455774068832397
0.474708288908004761 0.601657271385192871 0.472400665283203125
0.504925370216369629 0.604111671447753906 0.436915844678878784
0.647779405117034912 0.604191184043884277 0.00580242043361067772
0.616975605487823486 0.600530266761779785 0.020634261891245842
0.393874913454055786 0.605185449123382568 0.0282704047858715057
0.347620099782943726 0.607022225856781006 0.0355683639645576477
0.347092032432556152 0.605208277702331543 0.0430976822972297668
0.335090816020965576 0.607261717319488525 0.0559084638953208923
0.677013754844665527 0.606500804424285889 0.0760981887578964233
0.661046862602233887 0.604704499244689941 0.111575424671173096
0.647622466087341309 0.606609106063842773 0.122343398630619049
0.535186648368835449 0.605742871761322021 0.434364229440689087
0.596545875072479248 0.604969799518585205 0.456123918294906616
0.474590301513671875 0.606246113777160645 0.458118647336959839
0.59477698802947998 0.605289280414581299 0.47163623571395874
0.456671744585037231 0.606036007404327393 0.499987572431564331
0.62872016429901123 0.60499107837677002 0.529255390167236328
0.628761231899261475 0.60601729154586792 0.547344624996185303
0.457915663719177246 0.605738818645477295 0.579614520072937012
0.596522629261016846 0.605657815933227539 0.59616464376449585
0.469066858291625977 0.605097353458404541 0.59592670202255249
0.503464043140411377 0.605013847351074219 0.614096939563751221
0.547869980335235596 0.603143155574798584 0.434713572263717651
0.618143558502197266 0.606511414051055908 0.499461084604263306
0.613701522350311279 0.605914533138275146 0.580662548542022705
0.665805816650390625 0.605784416198730469 0.0214589815586805344
0.516556143760681152 0.607404470443725586 0.613742530345916748
0.362302571535110474 0.605564653873443604 0.154083788394927979
0.487820029258728027 0.607568025588989258 0.471838712692260742
0.473120599985122681 0.607283949851989746 0.482510954141616821
0.549567818641662598 0.607083499431610107 0.61446148157119751
0.659826755523681641 0.611006617546081543 0.00535083143040537834
0.642727255821228027 0.616551339626312256 0.0129530634731054306
0.615539312362670898 0.614744961261749268 0.0195518378168344498
0.659192860126495361 0.617871701717376709 0.0143858166411519051
0.655188202857971191 0.614789009094238281 0.0273722819983959198
0.601622343063354492 0.609236180782318115 0.0446190424263477325
0.34207993745803833 0.610732197761535645 0.0509343110024929047
0.594180583953857422 0.615602612495422363 0.0456022247672080994
0.668308377265930176 0.61246877908706665 0.0616724118590354919
0.658786296844482422 0.618853390216827393 0.105177626013755798
0.354138404130935669 0.615469932556152344 0.116412878036499023
0.653813660144805908 0.610478579998016357 0.113728128373622894
0.641721844673156738 0.617444932460784912 0.120143130421638489
0.647749543190002441 0.609840154647827148 0.130373433232307434
0.355047672986984253 0.61543649435043335 0.135871082544326782
0.354193061590194702 0.616473376750946045 0.146880015730857849
0.410926759243011475 0.618033707141876221 0.151529654860496521
0.643222451210021973 0.617425203323364258 0.149214446544647217
0.366088002920150757 0.616930007934570312 0.151882529258728027
0.394208550453186035 0.6126975417137146 0.161974593997001648
0.562699496746063232 0.613550662994384766 0.429625481367111206
0.535091578960418701 0.619791507720947266 0.43956369161605835
0.550164222717285156 0.619211792945861816 0.439948439598083496
0.494339406490325928 0.613854408264160156 0.442631721496582031
0.506500005722045898 0.618722736835479736 0.441446989774703979
0.579492032527923584 0.613021612167358398 0.443041801452636719
0.487317383289337158 0.608063161373138428 0.461773991584777832
0.451891481876373291 0.608928322792053223 0.512695133686065674
0.619604706764221191 0.610828399658203125 0.51769709587097168
0.492226600646972656 0.616055727005004883 0.607616662979125977
0.575046658515930176 0.610844612121582031 0.606356024742126465
0.572363018989562988 0.610329747200012207 0.613757729530334473
0.566012799739837646 0.618492424488067627 0.609013974666595459
0.534539878368377686 0.60862964391708374 0.614198148250579834
0.567597568035125732 0.613787055015563965 0.61958998441696167
0.351712316274642944 0.618400752544403076 0.00423804111778736115
0.368329793214797974 0.613434195518493652 0.00687573617324233055
0.381510138511657715 0.616132140159606934 0.00898791011422872543
0.628158211708068848 0.619131326675415039 0.0181246474385261536
0.394880354404449463 0.609460949897766113 0.0204899627715349197
0.60770726203918457 0.619805693626403809 0.0230881832540035248
0.400698989629745483 0.611645042896270752 0.0279372762888669968
0.653312504291534424 0.61455458402633667 0.0470628365874290466
0.590067088603973389 0.611452162265777588 0.0559499748051166534
0.415688782930374146 0.613768875598907471 0.0560912378132343292
0.580957710742950439 0.61800992488861084 0.0557348169386386871
0.327600479125976562 0.61088407039642334 0.0907822251319885254
0.338921785354614258 0.617098629474639893 0.103515021502971649
0.521216928958892822 0.617546200752258301 0.150619879364967346
0.534141957759857178 0.619075119495391846 0.150742888450622559
0.549009442329406738 0.615918517112731934 0.150807201862335205
0.610135316848754883 0.613967299461364746 0.150835528969764709
0.564883053302764893 0.61734771728515625 0.150942355394363403
0.580898463726043701 0.618868052959442139 0.150933742523193359
0.403656631708145142 0.607569515705108643 0.156384319067001343
0.588639914989471436 0.609839677810668945 0.459217309951782227
0.477095961570739746 0.613607347011566162 0.487599074840545654
0.603062152862548828 0.609571337699890137 0.484039902687072754
0.608842313289642334 0.615210235118865967 0.500650882720947266
0.618591129779815674 0.61021125316619873 0.511404097080230713
0.620223402976989746 0.611114978790283203 0.559793829917907715
0.61787879467010498 0.609168350696563721 0.569964945316314697
0.47748410701751709 0.613506615161895752 0.594083905220031738
0.581142961978912354 0.616553902626037598 0.594772398471832275
0.520848333835601807 0.617645919322967529 0.606416761875152588
0.60339885950088501 0.610283136367797852 0.0362619496881961823
0.413016140460968018 0.618002355098724365 0.0464198514819145203
0.338638275861740112 0.618194699287414551 0.0615711510181427002
0.670027673244476318 0.616747260093688965 0.0893620923161506653
0.462534397840499878 0.618278741836547852 0.15090489387512207
0.4777260422706604 0.619206726551055908 0.150889202952384949
0.42504572868347168 0.617479860782623291 0.151163622736930847
0.493291765451431274 0.613268136978149414 0.455354422330856323
0.585502505302429199 0.609233617782592773 0.469221293926239014
0.579629719257354736 0.614578366279602051 0.456528961658477783
0.494951695203781128 0.613080859184265137 0.475266218185424805
0.59632110595703125 0.61620098352432251 0.487097829580307007
0.606646060943603516 0.612445950508117676 0.491715043783187866
0.46508905291557312 0.612577080726623535 0.498681396245956421
0.449704885482788086 0.611335158348083496 0.51747429370880127
0.449536800384521484 0.611824274063110352 0.529549002647399902
0.453184008598327637 0.608616471290588379 0.561986029148101807
0.461923331022262573 0.614277660846710205 0.566334962844848633
0.608398258686065674 0.612581133842468262 0.577392041683197021
0.352331995964050293 0.617478847503662109 0.0467793084681034088
0.404141157865524292 0.613495469093322754 0.0404377132654190063
0.5660400390625 0.619061946868896484 0.057704731822013855
0.428874194622039795 0.619967162609100342 0.0574642419815063477
0.506596922874450684 0.619620382785797119 0.0596275664865970612
0.670317292213439941 0.616143763065338135 0.0740730985999107361
0.327602982521057129 0.612091600894927979 0.080123603343963623
0.665385067462921143 0.612291038036346436 0.103469982743263245
0.442026704549789429 0.616577684879302979 0.150987431406974792
0.396604746580123901 0.619734823703765869 0.152619138360023499
0.382514595985412598 0.613537490367889404 0.16071145236492157
0.52122730016708374 0.618764281272888184 0.43839418888092041
0.480372786521911621 0.610703885555267334 0.443978399038314819
0.589667618274688721 0.611222803592681885 0.444894790649414062
0.590245306491851807 0.611246109008789062 0.453972280025482178
0.506251990795135498 0.61456829309463501 0.471008419990539551
0.45871049165725708 0.617212533950805664 0.518233776092529297
0.619920611381530762 0.612765908241271973 0.529452800750732422
0.464546322822570801 0.613274753093719482 0.575027704238891602
0.594843268394470215 0.612636327743530273 0.590458989143371582
0.504735171794891357 0.617963850498199463 0.605834484100341797
0.552036583423614502 0.61876225471496582 0.605034589767456055
0.395393222570419312 0.619675040245056152 0.013424907810986042
0.351915329694747925 0.61845088005065918 0.0316209420561790466
0.444611251354217529 0.614679157733917236 0.0589947141706943512
0.460010111331939697 0.617738008499145508 0.0592544376850128174
0.490396887063980103 0.618804275989532471 0.0595951639115810394
0.521985888481140137 0.619013369083404541 0.0595779456198215485
0.552032351493835449 0.615361630916595459 0.058711715042591095
0.479915082454681396 0.611558437347412109 0.453476101160049438
0.579253554344177246 0.615912914276123047 0.473484069108963013
0.341382294893264771 0.617978036403656006 0.0123986862599849701
0.341617196798324585 0.61455458402633667 0.0243361461907625198
0.596221387386322021 0.618560254573822021 0.0297725275158882141
0.476204812526702881 0.615554451942443848 0.0595237798988819122
0.536083400249481201 0.617368996143341064 0.0592691302299499512
0.333046972751617432 0.618683278560638428 0.0747358053922653198
0.347255587577819824 0.619175374507904053 0.110031791031360626
0.363548010587692261 0.62072455883026123 0.132026910781860352
0.650836765766143799 0.613656461238861084 0.136012837290763855
0.652055442333221436 0.614008307456970215 0.145497366786003113
0.503901422023773193 0.617890417575836182 0.150723651051521301
0.380256086587905884 0.619814753532409668 0.153036817908287048
0.505305171012878418 0.615020871162414551 0.457759171724319458
0.489231884479522705 0.619215905666351318 0.486768752336502075
0.621138215065002441 0.61297297477722168 0.545344829559326172
0.458381444215774536 0.616537153720855713 0.549162089824676514
0.474368065595626831 0.618457973003387451 0.58017653226852417
0.644379734992980957 0.621670305728912354 0.0447734519839286804
0.659276425838470459 0.622181117534637451 0.058976493775844574
0.363730758428573608 0.619262933731079102 0.121375381946563721
0.56518322229385376 0.619351029396057129 0.456468164920806885
0.564710140228271484 0.619409263134002686 0.471276760101318359
0.519676506519317627 0.61893540620803833 0.471864044666290283
0.610304415225982666 0.618077278137207031 0.516259253025054932
0.610023975372314453 0.617673218250274658 0.563322603702545166
0.538802146911621094 0.620362579822540283 0.60531306266784668
0.363068073987960815 0.621645510196685791 0.00512047251686453819
0.412978678941726685 0.621226251125335693 0.0307435635477304459
0.645306229591369629 0.620745837688446045 0.0323742739856243134
0.334348112344741821 0.620889604091644287 0.0903382226824760437
0.644435465335845947 0.620379269123077393 0.136425942182540894
0.59944683313369751 0.620374739170074463 0.150886178016662598
0.627107679843902588 0.62080305814743042 0.151026397943496704
0.565159082412719727 0.619457840919494629 0.442859530448913574
0.521036744117736816 0.617845892906188965 0.456680834293365479
0.47329983115196228 0.619760632514953613 0.502230346202850342
0.610654771327972412 0.619481146335601807 0.531655073165893555
0.611353397369384766 0.619836568832397461 0.547774910926818848
0.593864679336547852 0.620655238628387451 0.578465282917022705
0.490493834018707275 0.621640443801879883 0.596367180347442627
0.409185171127319336 0.623011887073516846 0.0193417351692914963
0.347817033529281616 0.621952295303344727 0.0538175441324710846
0.489590585231781006 0.621050596237182617 0.150809198617935181
0.534914970397949219 0.620572209358215332 0.455222785472869873
0.534472763538360596 0.621321499347686768 0.471671611070632935
0.460567504167556763 0.621961891651153564 0.531584262847900391
0.550252079963684082 0.620834410190582275 0.455784738063812256
0.55108410120010376 0.621373116970062256 0.471221089363098145
0.582474470138549805 0.622936487197875977 0.485422074794769287
0.361338645219802856 0.621950268745422363 0.0409227237105369568
0.663682520389556885 0.622844874858856201 0.0951792225241661072
0.649671375751495361 0.620489120483398438 0.112090796232223511
0.597296178340911865 0.622841298580169678 0.500741899013519287
0.472614318132400513 0.62190014123916626 0.566613376140594482
0.57115405797958374 0.623063087463378906 0.596837997436523438
0.50430595874786377 0.622724354267120361 0.48326537013053894
0.348192185163497925 0.625287115573883057 0.00974124390631914139
0.383050739765167236 0.633216917514801025 0.00766298035159707069
0.354852735996246338 0.633241713047027588 0.0125941159203648567
0.613996207714080811 0.634641051292419434 0.0265916008502244949
0.596979260444641113 0.631719350814819336 0.0274887252599000931
0.354870468378067017 0.629828929901123047 0.0254008416086435318
0.641119837760925293 0.632464110851287842 0.0282739512622356415
0.585303544998168945 0.62386399507522583 0.0353035852313041687
0.362057536840438843 0.625321030616760254 0.0351800508797168732
0.584106206893920898 0.623991072177886963 0.0444641262292861938
0.42770114541053772 0.629981815814971924 0.0437786318361759186
0.422884464263916016 0.623267114162445068 0.0507540814578533173
0.5498618483543396 0.632915139198303223 0.0569847971200942993
0.341462790966033936 0.630114912986755371 0.0770965740084648132
0.664169549942016602 0.62517780065536499 0.0758501440286636353
0.658119022846221924 0.632280290126800537 0.0903934016823768616
0.340768188238143921 0.629207193851470947 0.0904091000556945801
0.644042074680328369 0.634112536907196045 0.107148557901382446
0.367137521505355835 0.631221175193786621 0.115496009588241577
0.627739012241363525 0.634122133255004883 0.117972202599048615
0.63202059268951416 0.625262796878814697 0.122496806085109711
0.629206717014312744 0.633488297462463379 0.133176669478416443
0.370390325784683228 0.632124841213226318 0.135798647999763489
0.640237390995025635 0.627821028232574463 0.13907274603843689
0.368021965026855469 0.631450474262237549 0.147140249609947205
0.564356446266174316 0.629159629344940186 0.48564988374710083
0.517349421977996826 0.624684691429138184 0.481022506952285767
0.487354099750518799 0.624451279640197754 0.496387988328933716
0.471326351165771484 0.623160243034362793 0.516173183917999268
0.603640317916870117 0.625137746334075928 0.518076777458190918
0.603323876857757568 0.624222397804260254 0.525610148906707764
0.465868204832077026 0.626053094863891602 0.544544816017150879
0.468420356512069702 0.623350620269775391 0.553905904293060303
0.599920749664306641 0.6233673095703125 0.565129995346069336
0.593918323516845703 0.627086937427520752 0.562760651111602783
0.479734331369400024 0.62730717658996582 0.563778281211853027
0.482317864894866943 0.624007225036621094 0.5827484130859375
0.581614792346954346 0.623861968517303467 0.583978593349456787
0.489696472883224487 0.630607008934020996 0.580439746379852295
0.578387320041656494 0.628483772277832031 0.578763961791992188
0.495148897171020508 0.628348588943481445 0.591501891613006592
0.564315617084503174 0.630204558372497559 0.595015466213226318
0.509380161762237549 0.625255227088928223 0.599521279335021973
0.516435205936431885 0.625131666660308838 0.600614845752716064
0.554024815559387207 0.625228404998779297 0.600007295608520508
0.505806028842926025 0.633771240711212158 0.59545588493347168
0.52187192440032959 0.633344471454620361 0.603910684585571289
0.532397031784057617 0.629283666610717773 0.604837179183959961
0.427086025476455688 0.631255090236663818 0.026632603257894516
0.578839421272277832 0.632830619812011719 0.0319849438965320587
0.562467217445373535 0.62956160306930542 0.0565104261040687561
0.444462895393371582 0.630864262580871582 0.0564633496105670929
0.351090610027313232 0.632290422916412354 0.103474020957946777
0.446852535009384155 0.631765902042388916 0.151250183582305908
0.628236174583435059 0.633407235145568848 0.149603769183158875
0.504091143608093262 0.627355754375457764 0.490606367588043213
0.476411908864974976 0.628203809261322021 0.532480359077453613
0.475516796112060547 0.630531609058380127 0.549182355403900146
0.367710113525390625 0.630558431148529053 0.00509870797395706177
0.641413986682891846 0.630204558372497559 0.0189782418310642242
0.651605308055877686 0.62759774923324585 0.0230932384729385376
0.639177262783050537 0.630828320980072021 0.0468522235751152039
0.576250851154327393 0.628844201564788818 0.0452620051801204681
0.462844222784042358 0.634121596813201904 0.0577077679336071014
0.476896405220031738 0.633733808994293213 0.0583750419318675995
0.533720016479492188 0.634791910648345947 0.0578955970704555511
0.654110372066497803 0.632619500160217285 0.0633542686700820923
0.611256718635559082 0.633830487728118896 0.150983884930610657
0.547042667865753174 0.62579035758972168 0.443502515554428101
0.536603569984436035 0.630738675594329834 0.486505478620529175
0.520194828510284424 0.629404664039611816 0.487912982702255249
0.550127148628234863 0.631426215171813965 0.486642181873321533
0.493070632219314575 0.628974318504333496 0.501379847526550293
0.590612828731536865 0.627591192722320557 0.504220068454742432
0.47953110933303833 0.627582550048828125 0.516866803169250488
0.594260573387145996 0.630270898342132568 0.516892135143280029
0.596445143222808838 0.630504310131072998 0.53029322624206543
0.594629168510437012 0.6307792067527771 0.547845780849456787
0.589945554733276367 0.62586677074432373 0.57113945484161377
0.367451906204223633 0.633323192596435547 0.0462568439543247223
0.459398537874221802 0.633094906806945801 0.151174262166023254
0.50728374719619751 0.633727729320526123 0.150992482900619507
0.519339442253112793 0.633664429187774658 0.150966674089431763
0.551667153835296631 0.631576061248779297 0.151022359728813171
0.574700713157653809 0.628888249397277832 0.489619076251983643
0.582049727439880371 0.63054424524307251 0.50119251012802124
0.366297096014022827 0.63447195291519165 0.0315576456487178802
0.429580956697463989 0.634191989898681641 0.15141826868057251
0.593698620796203613 0.633980870246887207 0.151055768132209778
0.397977232933044434 0.636879801750183105 0.0134648913517594337
0.410869032144546509 0.636701047420501709 0.0183540061116218567
0.629922568798065186 0.636759340763092041 0.0287123750895261765
