ply
format ascii 1.0
element vertex 761
property float x
property float y
property float z
end_header
0.573165595531463623 0.63573753833770752 0.787303686141967773
0.578524112701416016 0.626627922058105469 0.787715792655944824
0.574814319610595703 0.634830832481384277 0.783182382583618164
0.576875388622283936 0.630626320838928223 0.784006655216217041
0.578111946582794189 0.631945371627807617 0.779059112071990967
0.578936398029327393 0.626627922058105469 0.783594429492950439
0.581409573554992676 0.622876942157745361 0.780707657337188721
0.583470642566680908 0.614674150943756104 0.784006655216217041
0.585531651973724365 0.609109461307525635 0.780707657337188721
0.585943818092346191 0.606883525848388672 0.783594429492950439
0.587592542171478271 0.602266907691955566 0.780295431613922119
0.589241445064544678 0.596743404865264893 0.782358109951019287
0.59130251407623291 0.590807735919952393 0.779883384704589844
0.592126727104187012 0.589818418025970459 0.782770276069641113
0.592539072036743164 0.586067497730255127 0.779883384704589844
0.596660971641540527 0.578400492668151855 0.786479353904724121
0.595012247562408447 0.57844167947769165 0.779883384704589844
0.595012247562408447 0.575556337833404541 0.777410566806793213
0.593775689601898193 0.581574440002441406 0.776998460292816162
0.594599902629852295 0.577905893325805664 0.773701369762420654
0.593363344669342041 0.584872066974639893 0.77411353588104248
0.595424354076385498 0.578936398029327393 0.770404398441314697
0.594599902629852295 0.585160613059997559 0.770816504955291748
0.592126727104187012 0.590065896511077881 0.77411353588104248
0.594599902629852295 0.600041031837463379 0.764632582664489746
0.592126727104187012 0.593940496444702148 0.772464990615844727
0.591714620590209961 0.608697354793548584 0.767105400562286377
0.589653551578521729 0.597567856311798096 0.776998460292816162
0.586768269538879395 0.607790470123291016 0.777822732925415039
0.591714620590209961 0.590436816215515137 0.776998460292816162
0.580585122108459473 0.622217535972595215 0.786891520023345947
0.582646191120147705 0.617106139659881592 0.79554826021194458
0.587180376052856445 0.606471419334411621 0.792663276195526123
0.592951178550720215 0.59126126766204834 0.793075442314147949
0.577699840068817139 0.62530893087387085 0.799257397651672363
0.574402213096618652 0.629307329654693604 0.802142322063446045
0.594187796115875244 0.588087260723114014 0.789776444435119629
0.555028796195983887 0.657007217407226562 0.788952171802520752
0.565333783626556396 0.647237956523895264 0.785242974758148193
0.562860608100891113 0.65655362606048584 0.776998460292816162
0.569043517112731934 0.649711310863494873 0.774525642395019531
0.574814319610595703 0.643280863761901855 0.771228551864624023
0.580173015594482422 0.634624600410461426 0.771228551864624023
0.578111946582794189 0.639942049980163574 0.763396203517913818
0.582234025001525879 0.633511662483215332 0.765044689178466797
0.585119366645812988 0.629307329654693604 0.755563795566558838
0.586355924606323242 0.628853797912597656 0.751854598522186279
0.587592542171478271 0.62530893087387085 0.753090977668762207
0.582234025001525879 0.630832433700561523 0.770816504955291748
0.585119366645812988 0.625102818012237549 0.770404398441314697
0.588004827499389648 0.621970057487487793 0.765044689178466797
0.590478003025054932 0.612242221832275391 0.767517507076263428
0.590890169143676758 0.614014565944671631 0.764632582664489746
0.592539072036743164 0.609356701374053955 0.764632582664489746
0.592951178550720215 0.609356701374053955 0.762159764766693115
0.59583669900894165 0.599381625652313232 0.762159764766693115
0.591714620590209961 0.613767325878143311 0.761335551738739014
0.592951178550720215 0.550412118434906006 0.802554488182067871
0.580585122108459473 0.513478994369506836 0.805441319942474365
0.581821739673614502 0.515869677066802979 0.804617047309875488
0.583470642566680908 0.51628190279006958 0.802142322063446045
0.594187796115875244 0.53718036413192749 0.792663276195526123
0.596660971641540527 0.580420315265655518 0.789776444435119629
0.597897529602050781 0.575350344181060791 0.789776444435119629
0.598309874534606934 0.572547256946563721 0.786891520023345947
0.599546492099761963 0.565704703330993652 0.783594429492950439
0.598309874534606934 0.567188739776611328 0.780295431613922119
0.59707331657409668 0.56657034158706665 0.776586353778839111
0.596248865127563477 0.569414675235748291 0.77411353588104248
0.564509332180023193 0.658367395401000977 0.757624387741088867
0.560799598693847656 0.662571966648101807 0.757212281227111816
0.567394852638244629 0.658573508262634277 0.752678871154785156
0.560799598693847656 0.666322886943817139 0.752678871154785156
0.548845827579498291 0.670980751514434814 0.762159764766693115
0.55008244514465332 0.672299742698669434 0.758036553859710693
0.56780695915222168 0.655688166618347168 0.755151689052581787
0.588416993618011475 0.487510323524475098 0.776174187660217285
0.588004827499389648 0.488582044839859009 0.773289263248443604
0.588416993618011475 0.485572963953018188 0.773289263248443604
0.588004827499389648 0.482811242341995239 0.771228551864624023
0.499793887138366699 0.402638226747512817 0.771228551864624023
0.504328131675720215 0.402432143688201904 0.771228551864624023
0.508862316608428955 0.403503894805908203 0.769992232322692871
0.51174771785736084 0.405152618885040283 0.767517507076263428
0.487427890300750732 0.405152618885040283 0.767517507076263428
0.416941672563552856 0.472423791885375977 0.755563795566558838
0.415705084800720215 0.472671061754226685 0.75226670503616333
0.471352070569992065 0.422135323286056519 0.745670676231384277
0.472588658332824707 0.423165827989578247 0.742373645305633545
0.475474148988723755 0.422506213188171387 0.74031299352645874
0.471764206886291504 0.424278765916824341 0.739488720893859863
0.465993404388427734 0.42712286114692688 0.742373645305633545
0.468466758728027344 0.426051318645477295 0.739488720893859863
0.55750197172164917 0.391715019941329956 0.783594429492950439
0.561624050140380859 0.392250776290893555 0.783594429492950439
0.564097225666046143 0.393940895795822144 0.783594429492950439
0.567394852638244629 0.399093329906463623 0.780707657337188721
0.568631410598754883 0.398433715105056763 0.783182382583618164
0.569868028163909912 0.401071935892105103 0.782358109951019287
0.571104586124420166 0.404575616121292114 0.780295431613922119
0.569455862045288086 0.402555793523788452 0.779471278190612793
0.564509332180023193 0.399546653032302856 0.777822732925415039
0.563685059547424316 0.403256595134735107 0.77411353588104248
0.561211705207824707 0.398310065269470215 0.777410566806793213
0.590478003025054932 0.619125962257385254 0.753503143787384033
0.590890169143676758 0.696290850639343262 0.642209172248840332
0.59583669900894165 0.68742746114730835 0.595630407333374023
0.609851479530334473 0.667477071285247803 0.599752545356750488
0.607378304004669189 0.673495173454284668 0.554822683334350586
0.629637062549591064 0.637139201164245605 0.548227429389953613
0.606965959072113037 0.676174581050872803 0.503297567367553711
0.634995698928833008 0.628936231136322021 0.480214416980743408
0.627163887023925781 0.649340212345123291 0.41714775562286377
0.641590774059295654 0.609439194202423096 0.41714775562286377
0.61356121301651001 0.683758974075317383 0.311212092638015747
0.638293325901031494 0.617023706436157227 0.314509719610214233
0.628812611103057861 0.655152201652526855 0.249381795525550842
0.637056589126586914 0.621022164821624756 0.263396173715591431
0.635407865047454834 0.624814331531524658 0.211872085928916931
0.64282757043838501 0.56619948148727417 0.232894629240036011
0.645712852478027344 0.561294138431549072 0.149628683924674988
0.646949470043182373 0.536356151103973389 0.150454878807067871
0.645712852478027344 0.552967727184295654 0.136026442050933838
0.64612501859664917 0.533553063869476318 0.142622485756874084
0.644064128398895264 0.551360189914703369 0.127371698617935181
0.641590774059295654 0.54274517297744751 0.119951397180557251
0.640766501426696777 0.548845827579498291 0.116242222487926483
0.634995698928833008 0.534995913505554199 0.103462286293506622
0.630049169063568115 0.545960366725921631 0.0943954065442085266
0.631285786628723145 0.533058524131774902 0.0964560359716415405
0.617683291435241699 0.540107131004333496 0.0774941593408584595
0.61520993709564209 0.526009917259216309 0.0758456215262413025
0.61356121301651001 0.550412118434906006 0.0725485906004905701
0.592539072036743164 0.527328908443450928 0.0535867102444171906
0.589241445064544678 0.554039418697357178 0.0515260398387908936
0.582646191120147705 0.520445168018341064 0.0482290014624595642
0.575226664543151855 0.527040421962738037 0.0449299998581409454
0.577699840068817139 0.52069246768951416 0.0461664050817489624
0.573165595531463623 0.51615828275680542 0.0453421361744403839
0.574402213096618652 0.503215193748474121 0.0478168688714504242
0.564097225666046143 0.518507778644561768 0.0432814657688140869
0.561624050140380859 0.511046946048736572 0.0441057309508323669
0.554616630077362061 0.515952169895172119 0.0432814657688140869
0.558738529682159424 0.500906825065612793 0.0461664050817489624
0.555440902709960938 0.48301735520362854 0.0502896346151828766
0.565333783626556396 0.48454245924949646 0.0502896346151828766
0.561624050140380859 0.474361211061477661 0.0515260398387908936
0.566982507705688477 0.473577946424484253 0.0519381724298000336
0.56203615665435791 0.461665451526641846 0.0527624413371086121
0.56780695915222168 0.464344680309295654 0.0527624413371086121
0.567394852638244629 0.447197139263153076 0.0535867102444171906
0.571929037570953369 0.459728032350540161 0.0535867102444171906
0.573165595531463623 0.445795685052871704 0.0539988055825233459
0.579348564147949219 0.46319049596786499 0.0556473433971405029
0.579760849475860596 0.445795685052871704 0.0560594759881496429
0.585943818092346191 0.456512808799743652 0.0589463450014591217
0.589653551578521729 0.447444409132003784 0.0610069781541824341
0.592951178550720215 0.463025659322738647 0.0630676448345184326
0.595424354076385498 0.441508740186691284 0.0659525468945503235
0.602019667625427246 0.429843485355377197 0.0729607194662094116
0.59583669900894165 0.42963746190071106 0.0655404180288314819
0.598309874534606934 0.426916807889938354 0.0684253573417663574
0.595424354076385498 0.426092535257339478 0.0655404180288314819
0.59872204065322876 0.42399027943611145 0.0696617215871810913
0.595424354076385498 0.422877341508865356 0.066364683210849762
0.601195216178894043 0.419497281312942505 0.0758456215262413025
0.592539072036743164 0.420321732759475708 0.0651282817125320435
0.592126727104187012 0.417312592267990112 0.0671889558434486389
0.588829100131988525 0.417848378419876099 0.0634797811508178711
0.588829100131988525 0.414880633354187012 0.066364683210849762
0.586355924606323242 0.415416419506072998 0.0638919174671173096
0.585943818092346191 0.410923421382904053 0.0692495852708816528
0.583058297634124756 0.409315913915634155 0.0688374489545822144
0.585943818092346191 0.407914489507675171 0.0721364542841911316
0.582646191120147705 0.40709000825881958 0.0704879164695739746
0.583470642566680908 0.404493182897567749 0.0717243179678916931
0.580173015594482422 0.404575616121292114 0.0700758174061775208
0.580173015594482422 0.400989502668380737 0.0709000527858734131
0.574402213096618652 0.399958968162536621 0.0684253573417663574
0.573990106582641602 0.391014188528060913 0.066364683210849762
0.567394852638244629 0.392374426126480103 0.0659525468945503235
0.570280134677886963 0.379472583532333374 0.0622433796525001526
0.566982507705688477 0.379431366920471191 0.0618312470614910126
0.571516692638397217 0.372630059719085693 0.0610069781541824341
0.566982507705688477 0.367188960313796997 0.0593584775924682617
0.567394852638244629 0.364221245050430298 0.0593584775924682617
0.564097225666046143 0.364386081695556641 0.0589463450014591217
0.566982507705688477 0.357625961303710938 0.0593584775924682617
0.564509332180023193 0.358161747455596924 0.0593584775924682617
0.564921677112579346 0.35540008544921875 0.0597706139087677002
0.56038743257522583 0.352102458477020264 0.0601827092468738556
0.564509332180023193 0.349217146635055542 0.0610069781541824341
0.561624050140380859 0.346290439367294312 0.0618312470614910126
0.564509332180023193 0.345630824565887451 0.0622433796525001526
0.564509332180023193 0.327906310558319092 0.0692495852708816528
0.567394852638244629 0.339571535587310791 0.0651282817125320435
0.56780695915222168 0.324114114046096802 0.0717243179678916931
0.570692479610443115 0.339777588844299316 0.066364683210849762
0.576463222503662109 0.330173403024673462 0.0750213563442230225
0.573577761650085449 0.344682931900024414 0.0655404180288314819
0.576875388622283936 0.348227858543395996 0.0667768195271492004
0.573165595531463623 0.349876552820205688 0.0634797811508178711
0.577287495136260986 0.352267295122146606 0.0655404180288314819
0.575638771057128906 0.355977058410644531 0.0634797811508178711
0.576463222503662109 0.362778395414352417 0.0634797811508178711
0.573165595531463623 0.359975516796112061 0.0614191107451915741
0.573577761650085449 0.364839434623718262 0.0610069781541824341
0.570692479610443115 0.363190710544586182 0.0601827092468738556
0.570692479610443115 0.355688571929931641 0.0605948418378829956
0.573165595531463623 0.35474047064781189 0.0622433796525001526
0.573990106582641602 0.484913438558578491 0.0515260398387908936
0.570692479610443115 0.472011655569076538 0.0523503050208091736
0.557914078235626221 0.523536741733551025 0.0420450977981090546
0.533594310283660889 0.538829326629638672 0.0412208288908004761
0.499793887138366699 0.534666001796722412 0.0457542687654495239
0.499793887138366699 0.535943806171417236 0.0457542687654495239
0.466405719518661499 0.538829326629638672 0.0412208288908004761
0.471764206886291504 0.553256213665008545 0.0408086962997913361
0.449505448341369629 0.551195383071899414 0.040396563708782196
0.460222572088241577 0.576999068260192871 0.0420450977981090546
0.446207821369171143 0.561335325241088867 0.0408086962997913361
0.585531651973724365 0.480791479349136353 0.0564716123044490814
0.595012247562408447 0.498680979013442993 0.0593584775924682617
0.607378304004669189 0.486727118492126465 0.0758456215262413025
0.627988338470458984 0.519950449466705322 0.0948075428605079651
0.622629642486572266 0.501319050788879395 0.0931590050458908081
0.630461513996124268 0.516858994960784912 0.100165247917175293
0.628812611103057861 0.503833472728729248 0.103050149977207184
0.629637062549591064 0.501319050788879395 0.107585512101650238
0.626751720905303955 0.488746911287307739 0.106761246919631958
0.627988338470458984 0.486521035432815552 0.112118951976299286
0.623866260051727295 0.477122873067855835 0.103050149977207184
0.622217535972595215 0.44991755485534668 0.107585512101650238
0.616446733474731445 0.442003309726715088 0.0956318080425262451
0.616034388542175293 0.435449451208114624 0.096868172287940979
0.61356121301651001 0.435078352689743042 0.0915085375308990479
0.61520993709564209 0.426257401704788208 0.0972803086042404175
0.612324655055999756 0.426298618316650391 0.0898599997162818909
0.611912548542022705 0.422836124897003174 0.0910964012145996094
0.608614921569824219 0.422959774732589722 0.0849144682288169861
0.610263586044311523 0.419785767793655396 0.0902721360325813293
0.60902702808380127 0.420074284076690674 0.0873872339725494385
0.60902702808380127 0.416611790657043457 0.0915085375308990479
0.604492843151092529 0.417106539011001587 0.0828537940979003906
0.602019667625427246 0.412160009145736694 0.0840901955962181091
0.60160750150680542 0.416611790657043457 0.0791426971554756165
0.59872204065322876 0.413437992334365845 0.078730560839176178
0.598309874534606934 0.416446924209594727 0.0746092572808265686
0.60490494966506958 0.419991850852966309 0.0807911977171897888
0.602844119071960449 0.422959774732589722 0.0758456215262413025
0.60902702808380127 0.42712286114692688 0.0840901955962181091
0.601195216178894043 0.426422238349914551 0.0721364542841911316
0.574402213096618652 0.471970438957214355 0.0535867102444171906
0.622629642486572266 0.570774853229522705 0.0865629687905311584
0.60902702808380127 0.573536574840545654 0.0713121891021728516
0.618095457553863525 0.590601682662963867 0.088623635470867157
0.591714620590209961 0.595424354076385498 0.0630676448345184326
0.600370943546295166 0.615539848804473877 0.0828537940979003906
0.582646191120147705 0.623082995414733887 0.0717243179678916931
0.586768269538879395 0.640148162841796875 0.0890357717871665955
0.56780695915222168 0.637468874454498291 0.0733728557825088501
0.557914078235626221 0.655646979808807373 0.0824416577816009521
0.545548200607299805 0.637468874454498291 0.0548230744898319244
0.544311642646789551 0.651895821094512939 0.0688374489545822144
0.539365112781524658 0.640601634979248047 0.0539988055825233459
0.538128495216369629 0.650576770305633545 0.0643040165305137634
0.535655319690704346 0.641261100769042969 0.0535867102444171906
0.531945586204528809 0.648350894451141357 0.0597706139087677002
0.52081608772277832 0.649257779121398926 0.0593584775924682617
0.536891937255859375 0.663849711418151855 0.077082023024559021
0.518755137920379639 0.65346229076385498 0.0630676448345184326
0.52081608772277832 0.672959387302398682 0.0820295289158821106
0.543487191200256348 0.661665022373199463 0.0779062956571578979
0.558326423168182373 0.665869534015655518 0.0935711339116096497
0.576050937175750732 0.669166982173919678 0.110058322548866272
0.533182144165039062 0.687798619270324707 0.103874415159225464
0.59130251407623291 0.643239676952362061 0.096868172287940979
0.588829100131988525 0.664962649345397949 0.119539260864257812
0.596248865127563477 0.66516876220703125 0.131080865859985352
0.576463222503662109 0.705316901206970215 0.163645029067993164
0.606141746044158936 0.670032620429992676 0.161170288920402527
0.591714620590209961 0.709727823734283447 0.201154738664627075
0.612324655055999756 0.683552861213684082 0.201154738664627075
0.60943913459777832 0.69175565242767334 0.21434485912322998
0.617683291435241699 0.678688943386077881 0.21434485912322998
0.607790470123291016 0.698392271995544434 0.238252326846122742
0.621393084526062012 0.675144076347351074 0.227122843265533447
0.622217535972595215 0.673783838748931885 0.244436219334602356
0.582234025001525879 0.718796670436859131 0.200742602348327637
0.566982507705688477 0.731656312942504883 0.20486392080783844
0.571104586124420166 0.731450200080871582 0.21434485912322998
0.557089805603027344 0.738746106624603271 0.210635676980018616
0.569868028163909912 0.734088242053985596 0.223413676023483276
0.55585324764251709 0.741424918174743652 0.222177296876907349
0.5661582350730896 0.738293170928955078 0.25226670503616333
0.552143275737762451 0.745176911354064941 0.239488720893859863
0.550906658172607422 0.744970798492431641 0.27823677659034729
0.588829100131988525 0.717270612716674805 0.215993389487266541
0.580173015594482422 0.726339399814605713 0.222589403390884399
0.582234025001525879 0.727204501628875732 0.249381795525550842
0.574814319610595703 0.732521355152130127 0.260099142789840698
0.594187796115875244 0.715909779071807861 0.25226670503616333
0.587592542171478271 0.721681594848632812 0.236603811383247375
0.597897529602050781 0.710839807987213135 0.234543159604072571
0.607790470123291016 0.698639214038848877 0.258450627326965332
0.587180376052856445 0.69476473331451416 0.55317378044128418
0.60160750150680542 0.680337667465209961 0.557295858860015869
0.61356121301651001 0.644352614879608154 0.13149300217628479
0.646537303924560547 0.530585348606109619 0.366034775972366333
0.636644423007965088 0.618054211139678955 0.54740297794342041
0.616034388542175293 0.648639559745788574 0.652102053165435791
0.606141746044158936 0.671681523323059082 0.656223952770233154
0.602431774139404297 0.680543720722198486 0.649628698825836182
0.600370943546295166 0.682110249996185303 0.659521579742431641
0.59583669900894165 0.689653396606445312 0.654162883758544922
0.632110238075256348 0.607378304004669189 0.62407231330871582
0.640766501426696777 0.493981868028640747 0.347073674201965332
0.622217535972595215 0.443322509527206421 0.349134534597396851
0.60160750150680542 0.411706656217575073 0.401484072208404541
0.587592542171478271 0.40037110447883606 0.443528562784194946
0.570280134677886963 0.384460151195526123 0.395301133394241333
0.57234114408493042 0.387098371982574463 0.426628291606903076
0.562860608100891113 0.380461901426315308 0.406842738389968872
0.559150874614715576 0.381203740835189819 0.439818799495697021
0.554204285144805908 0.376793354749679565 0.413437992334365845
0.543075025081634521 0.374608665704727173 0.430750370025634766
0.543075025081634521 0.373330861330032349 0.399835348129272461
0.531533241271972656 0.371269822120666504 0.414674580097198486
0.521228432655334473 0.370775073766708374 0.387469291687011719
0.499793887138366699 0.371269822120666504 0.414674580097198486
0.499793887138366699 0.370939940214157104 0.398186445236206055
0.478359431028366089 0.370775073766708374 0.387469291687011719
0.499793887138366699 0.373413294553756714 0.350371301174163818
0.47341310977935791 0.376752138137817383 0.304204881191253662
0.499793887138366699 0.376752138137817383 0.304204881191253662
0.499793887138366699 0.377741247415542603 0.294723957777023315
0.526174783706665039 0.376752138137817383 0.304204881191253662
0.506801307201385498 0.378029942512512207 0.291839033365249634
0.527411341667175293 0.380997657775878906 0.280297428369522095
0.514220893383026123 0.390602052211761475 0.227947115898132324
0.534418761730194092 0.386686056852340698 0.260099142789840698
0.534418761730194092 0.394353032112121582 0.227534979581832886
0.538540840148925781 0.394064545631408691 0.234131023287773132
0.541014015674591064 0.395383566617965698 0.227534979581832886
0.545960366725921631 0.396001756191253662 0.233718886971473694
0.546784818172454834 0.395919322967529297 0.226710736751556396
0.552555620670318604 0.396661341190338135 0.227534979581832886
0.552967727184295654 0.393940895795822144 0.220940887928009033
0.559150874614715576 0.395095080137252808 0.22176516056060791
0.571104586124420166 0.38491368293762207 0.20321539044380188
0.569043517112731934 0.3967437744140625 0.220940887928009033
0.577287495136260986 0.398722380399703979 0.220528751611709595
0.576050937175750732 0.402885496616363525 0.226710736751556396
0.583470642566680908 0.402432143688201904 0.22176516056060791
0.582646191120147705 0.407873243093490601 0.227947115898132324
0.589653551578521729 0.404451996088027954 0.220528751611709595
0.594187796115875244 0.409068644046783447 0.221353024244308472
0.594599902629852295 0.402143687009811401 0.215169116854667664
0.601195216178894043 0.408779948949813843 0.215169116854667664
0.60160750150680542 0.401195555925369263 0.208162888884544373
0.606965959072113037 0.408862560987472534 0.209811419248580933
0.607790470123291016 0.405152618885040283 0.205688178539276123
0.609851479530334473 0.408532649278640747 0.206100299954414368
0.611088037490844727 0.407667189836502075 0.20321539044380188
0.611500203609466553 0.413396596908569336 0.208162888884544373
0.613149106502532959 0.41150057315826416 0.20321539044380188
0.615622282028198242 0.41714775562286377 0.202391132712364197
0.61520993709564209 0.40935710072517395 0.194558709859848022
0.618095457553863525 0.41088220477104187 0.186316072940826416
0.615622282028198242 0.404699265956878662 0.187140345573425293
0.61520993709564209 0.401607692241668701 0.180956438183784485
0.613149106502532959 0.401525259017944336 0.190437406301498413
0.612736761569976807 0.398928463459014893 0.185079708695411682
0.60902702808380127 0.398804813623428345 0.196621298789978027
0.607378304004669189 0.395630836486816406 0.193734437227249146
0.607378304004669189 0.396702587604522705 0.196621298789978027
0.604492843151092529 0.394146978855133057 0.196621298789978027
0.604492843151092529 0.395960539579391479 0.199506208300590515
0.60160750150680542 0.393487364053726196 0.199506208300590515
0.604492843151092529 0.398598760366439819 0.202803254127502441
0.59872204065322876 0.39311644434928894 0.201978996396064758
0.608614921569824219 0.41941484808921814 0.215169116854667664
0.613973379135131836 0.431863337755203247 0.215581253170967102
0.607790470123291016 0.427164077758789062 0.221353024244308472
0.607790470123291016 0.432563960552215576 0.226710736751556396
0.602431774139404297 0.42613375186920166 0.227122843265533447
0.606141746044158936 0.436686038970947266 0.233306750655174255
0.596660971641540527 0.425020813941955566 0.233718886971473694
0.596248865127563477 0.428318440914154053 0.239900842308998108
0.589241445064544678 0.420651435852050781 0.239900842308998108
0.590478003025054932 0.422918558120727539 0.246496871113777161
0.584294915199279785 0.415993601083755493 0.249381795525550842
0.576463222503662109 0.399093329906463623 0.293899685144424438
0.576875388622283936 0.40935710072517395 0.250206053256988525
0.564097225666046143 0.401607692241668701 0.244436219334602356
0.571929037570953369 0.40709000825881958 0.241137236356735229
0.570692479610443115 0.404410749673843384 0.234131023287773132
0.576875388622283936 0.407873243093490601 0.233718886971473694
0.596248865127563477 0.419167578220367432 0.227947115898132324
0.589653551578521729 0.412984460592269897 0.227947115898132324
0.583058297634124756 0.412613540887832642 0.234131023287773132
0.577699840068817139 0.410758554935455322 0.239488720893859863
0.589653551578521729 0.418054640293121338 0.234131023287773132
0.582646191120147705 0.414757013320922852 0.240725114941596985
0.618507564067840576 0.438582032918930054 0.211047813296318054
0.618507564067840576 0.424443632364273071 0.199506208300590515
0.622217535972595215 0.448474913835525513 0.206100299954414368
0.623041808605194092 0.428442090749740601 0.180132180452346802
0.632110238075256348 0.478936642408370972 0.185491815209388733
0.632522523403167725 0.470197886228561401 0.159933894872665405
0.640766501426696777 0.499752670526504517 0.156636863946914673
0.635407865047454834 0.481203675270080566 0.155812591314315796
0.637468874454498291 0.491632312536239624 0.147155925631523132
0.633759140968322754 0.482934892177581787 0.145507380366325378
0.630049169063568115 0.478647917509078979 0.134790033102035522
0.639942049980163574 0.518796324729919434 0.20898716151714325
0.6403542160987854 0.527658641338348389 0.230007767677307129
0.643239676952362061 0.543816864490509033 0.265046656131744385
0.639117598533630371 0.521063387393951416 0.247733280062675476
0.633346796035766602 0.498969495296478271 0.250618189573287964
0.626751720905303955 0.480338066816329956 0.255153566598892212
0.614385664463043213 0.455441087484359741 0.256802082061767578
0.628812611103057861 0.486438632011413574 0.245260491967201233
0.618095457553863525 0.46240726113319397 0.246496871113777161
0.627163887023925781 0.481698304414749146 0.239076584577560425
0.623041808605194092 0.463849931955337524 0.225474327802658081
0.632522523403167725 0.494806289672851562 0.22959563136100769
0.618919909000396729 0.450948089361190796 0.22176516056060791
0.616446733474731445 0.457254856824874878 0.239900842308998108
0.613973379135131836 0.444806367158889771 0.227534979581832886
0.608202576637268066 0.44402313232421875 0.239076584577560425
0.608202576637268066 0.446413874626159668 0.246909007430076599
0.608614921569824219 0.438087493181228638 0.283182352781295776
0.596660971641540527 0.413479208946228027 0.318631798028945923
0.586768269538879395 0.397032290697097778 0.371805578470230103
0.55585324764251709 0.378153592348098755 0.364386051893234253
0.597897529602050781 0.431986957788467407 0.247321143746376038
0.619744181632995605 0.411583006381988525 0.175598740577697754
0.619332015514373779 0.408367812633514404 0.167354196310043335
0.616034388542175293 0.401937574148178101 0.174774467945098877
0.617271006107330322 0.404534429311752319 0.161996498703956604
0.615622282028198242 0.401813775300979614 0.164469256997108459
0.616858839988708496 0.405771017074584961 0.150454878807067871
0.611088037490844727 0.397774308919906616 0.15869748592376709
0.61067575216293335 0.401648938655853271 0.13767494261264801
0.608202576637268066 0.394806385040283203 0.154988318681716919
0.608614921569824219 0.398598760366439819 0.140149667859077454
0.606965959072113037 0.392374426126480103 0.145919516682624817
0.608202576637268066 0.397568225860595703 0.136850669980049133
0.608202576637268066 0.398474931716918945 0.133553639054298401
0.609851479530334473 0.401648938655853271 0.134377911686897278
0.60943913459777832 0.401525259017944336 0.131080865859985352
0.611088037490844727 0.404122084379196167 0.13149300217628479
0.61067575216293335 0.404822885990142822 0.126545459032058716
0.616446733474731445 0.40845024585723877 0.137262806296348572
0.616858839988708496 0.41364404559135437 0.123660564422607422
0.619332015514373779 0.415045499801635742 0.129432335495948792
0.619744181632995605 0.418507963418960571 0.123660564422607422
0.620568633079528809 0.415911167860031128 0.134377911686897278
0.620156466960906982 0.422630071640014648 0.118714988231658936
0.628812611103057861 0.455152601003646851 0.148804411292076111
0.610263586044311523 0.396042972803115845 0.180132180452346802
0.607378304004669189 0.394353032112121582 0.190437406301498413
0.605317294597625732 0.391756236553192139 0.183841347694396973
0.604492843151092529 0.391549974679946899 0.187552481889724731
0.602019667625427246 0.388829529285430908 0.184253484010696411
0.601195216178894043 0.388458609580993652 0.187140345573425293
0.599958598613739014 0.386026620864868164 0.184253484010696411
0.598309874534606934 0.387263208627700806 0.190025269985198975
0.597897529602050781 0.383841961622238159 0.185079708695411682
0.59583669900894165 0.38413044810295105 0.188788875937461853
0.59583669900894165 0.381080090999603271 0.183841347694396973
0.592126727104187012 0.377988725900650024 0.184253484010696411
0.595424354076385498 0.378977835178375244 0.180544301867485046
0.592539072036743164 0.371063768863677979 0.172299772500991821
0.595012247562408447 0.374814748764038086 0.17436237633228302
0.595012247562408447 0.373124599456787109 0.169002696871757507
0.599958598613739014 0.381574839353561401 0.167766332626342773
0.592539072036743164 0.367477446794509888 0.165293529629707336
0.598309874534606934 0.370692670345306396 0.153751924633979797
0.595012247562408447 0.358038097620010376 0.141386076807975769
0.59707331657409668 0.361418157815933228 0.140973940491676331
0.59748542308807373 0.36195412278175354 0.138499215245246887
0.60160750150680542 0.37543293833732605 0.147568017244338989
0.599134147167205811 0.364014983177185059 0.119127124547958374
0.6032562255859375 0.383182346820831299 0.157873228192329407
0.606141746044158936 0.389530330896377563 0.151279151439666748
0.606965959072113037 0.391715019941329956 0.156636863946914673
0.608614921569824219 0.394930005073547363 0.159521758556365967
0.589653551578521729 0.364921867847442627 0.168178468942642212
0.586355924606323242 0.363355576992034912 0.169826969504356384
0.589653551578521729 0.383677095174789429 0.194558709859848022
0.583058297634124756 0.360882401466369629 0.169002696871757507
0.579760849475860596 0.358161747455596924 0.167766332626342773
0.583058297634124756 0.355441302061080933 0.161996498703956604
0.580173015594482422 0.352390944957733154 0.160346031188964844
0.583058297634124756 0.351195573806762695 0.156636863946914673
0.580173015594482422 0.348763614892959595 0.156224727630615234
0.583058297634124756 0.348557531833648682 0.153339818120002747
0.580173015594482422 0.345713257789611816 0.152927681803703308
0.583058297634124756 0.345548421144485474 0.150040820240974426
0.580173015594482422 0.342457056045532227 0.150040820240974426
0.583470642566680908 0.342127144336700439 0.147155925631523132
0.580173015594482422 0.33899456262588501 0.147155925631523132
0.582646191120147705 0.336933523416519165 0.14344671368598938
0.579348564147949219 0.335944205522537231 0.145919516682624817
0.580173015594482422 0.33322376012802124 0.144683107733726501
0.576463222503662109 0.333347409963607788 0.146331652998924255
0.576875388622283936 0.330008566379547119 0.145507380366325378
0.573990106582641602 0.3305855393409729 0.147155925631523132
0.572753310203552246 0.32666972279548645 0.146331652998924255
0.571104586124420166 0.330132186412811279 0.147568017244338989
0.56780695915222168 0.326710939407348633 0.147568017244338989
0.567394852638244629 0.330214619636535645 0.147980153560638428
0.564509332180023193 0.327123075723648071 0.147568017244338989
0.564509332180023193 0.330667972564697266 0.148392289876937866
0.561624050140380859 0.327700227499008179 0.147568017244338989
0.561211705207824707 0.33108028769493103 0.148392289876937866
0.558326423168182373 0.327823877334594727 0.147155925631523132
0.557914078235626221 0.331698507070541382 0.147980153560638428
0.555028796195983887 0.329843699932098389 0.146331652998924255
0.555028796195983887 0.333594679832458496 0.147155925631523132
0.552143275737762451 0.332852661609649658 0.145919516682624817
0.551731109619140625 0.336191505193710327 0.146331652998924255
0.545960366725921631 0.336397558450698853 0.143034577369689941
0.549257934093475342 0.339942455291748047 0.146743789315223694
0.545960366725921631 0.339530318975448608 0.144683107733726501
0.545960366725921631 0.342869162559509277 0.146743789315223694
0.542662739753723145 0.342621892690658569 0.144270986318588257
0.542662739753723145 0.346455276012420654 0.147568017244338989
0.539777398109436035 0.346125602722167969 0.144270986318588257
0.542662739753723145 0.351360410451889038 0.152515560388565063
0.536891937255859375 0.350000202655792236 0.144683107733726501
0.534418761730194092 0.360634922981262207 0.155400454998016357
0.532770037651062012 0.359645813703536987 0.151279151439666748
0.529472410678863525 0.367683708667755127 0.159933894872665405
0.529060065746307373 0.364344865083694458 0.152515560388565063
0.526174783706665039 0.370239317417144775 0.157048985362052917
0.526174783706665039 0.367642492055892944 0.150040820240974426
0.522877156734466553 0.373454511165618896 0.153339818120002747
0.523701608180999756 0.370404154062271118 0.146743789315223694
0.52081608772277832 0.376628309488296509 0.149628683924674988
0.52205270528793335 0.372794926166534424 0.139325410127639771
0.517930686473846436 0.385614305734634399 0.139737546443939209
0.517930686473846436 0.387551724910736084 0.129020199179649353
0.517106294631958008 0.38841739296913147 0.133141502737998962
0.515045344829559326 0.392085939645767212 0.129020199179649353
0.514633119106292725 0.391426324844360352 0.135614305734634399
0.51174771785736084 0.393940895795822144 0.133965775370597839
0.51174771785736084 0.392415642738342285 0.141386076807975769
0.508037924766540527 0.393157660961151123 0.143034577369689941
0.508862316608428955 0.392168343067169189 0.147568017244338989
0.503915905952453613 0.392209559679031372 0.149628683924674988
0.508450090885162354 0.391137838363647461 0.154988318681716919
0.504328131675720215 0.390931785106658936 0.160758167505264282
0.508862316608428955 0.390272170305252075 0.164469256997108459
0.504328131675720215 0.39035460352897644 0.170651242136955261
0.508450090885162354 0.390230953693389893 0.171475499868392944
0.508037924766540527 0.39035460352897644 0.178483679890632629
0.511335551738739014 0.389695197343826294 0.172299772500991821
0.51174771785736084 0.390313386917114258 0.180956438183784485
0.514220893383026123 0.388788312673568726 0.174774467945098877
0.515045344829559326 0.388994365930557251 0.178071543574333191
0.517930686473846436 0.387015759944915771 0.177659407258033752
0.517106294631958008 0.388623446226119995 0.180544301867485046
0.519167304039001465 0.387139588594436646 0.181780710816383362
0.514633119106292725 0.389736384153366089 0.181368574500083923
0.514220893383026123 0.390230953693389893 0.184253484010696411
0.511335551738739014 0.390602052211761475 0.184253484010696411
0.511335551738739014 0.390808135271072388 0.187552481889724731
0.508450090885162354 0.390519648790359497 0.184253484010696411
0.503915905952453613 0.390066087245941162 0.187140345573425293
0.552143275737762451 0.396826207637786865 0.241549372673034668
0.552967727184295654 0.398021578788757324 0.233306750655174255
0.559150874614715576 0.400041401386260986 0.234131023287773132
0.564509332180023193 0.399711698293685913 0.228359252214431763
0.565333783626556396 0.401854962110519409 0.233306750655174255
0.572753310203552246 0.399258166551589966 0.514839231967926025
0.573577761650085449 0.403297841548919678 0.539158999919891357
0.568631410598754883 0.399876534938812256 0.5370979905128479
0.56780695915222168 0.399752914905548096 0.54122006893157959
0.55585324764251709 0.388953149318695068 0.507419586181640625
0.546372473239898682 0.379925936460494995 0.469909429550170898
0.531945586204528809 0.378648132085800171 0.485160797834396362
0.499793887138366699 0.376381039619445801 0.475267887115478516
0.499793887138366699 0.374237567186355591 0.454657852649688721
0.468054443597793579 0.371269822120666504 0.414674580097198486
0.532770037651062012 0.42349553108215332 0.732892632484436035
0.529884517192840576 0.42106357216835022 0.730419933795928955
0.526999235153198242 0.422465026378631592 0.733716964721679688
0.526174783706665039 0.420033037662506104 0.730007767677307129
0.530296683311462402 0.425020813941955566 0.736603796482086182
0.533182144165039062 0.42613375186920166 0.736603796482086182
0.536479771137237549 0.42749398946762085 0.736603796482086182
0.542662739753723145 0.429925918579101562 0.737015902996063232
0.508862316608428955 0.418384343385696411 0.733304798603057861
0.508862316608428955 0.417477458715438843 0.736603796482086182
0.508037924766540527 0.416076004505157471 0.74031299352645874
0.508450090885162354 0.414633363485336304 0.746082782745361328
0.51174771785736084 0.418219476938247681 0.736603796482086182
0.511335551738739014 0.416199654340744019 0.743197917938232422
0.517106294631958008 0.418590396642684937 0.742785811424255371
0.511335551738739014 0.415045499801635742 0.746494948863983154
0.569455862045288086 0.443075031042098999 0.757624387741088867
0.577699840068817139 0.462943226099014282 0.755151689052581787
0.579760849475860596 0.466405719518661499 0.75226670503616333
0.584707200527191162 0.469662129878997803 0.743609964847564697
0.583058297634124756 0.466282069683074951 0.742785811424255371
0.575638771057128906 0.46026378870010376 0.753090977668762207
0.552555620670318604 0.439076781272888184 0.745670676231384277
0.549257934093475342 0.436933308839797974 0.742373645305633545
0.517518520355224609 0.417188972234725952 0.745670676231384277
0.499793887138366699 0.412984460592269897 0.748557507991790771
0.497320711612701416 0.414468318223953247 0.7448464035987854
0.445383369922637939 0.438458412885665894 0.748969674110412598
0.422712475061416626 0.460717320442199707 0.749381780624389648
0.422300159931182861 0.459274500608444214 0.743197917938232422
0.419002532958984375 0.462613344192504883 0.742373645305633545
0.416529357433319092 0.466282069683074951 0.742785811424255371
0.416529357433319092 0.463231712579727173 0.739900887012481689
0.41364404559135437 0.466405719518661499 0.739488720893859863
0.41364404559135437 0.459728032350540161 0.736191630363464355
0.409934103488922119 0.469662129878997803 0.738252341747283936
0.404987752437591553 0.461129456758499146 0.730419933795928955
0.399216949939727783 0.480420500040054321 0.733304798603057861
0.400865852832794189 0.451112955808639526 0.72052687406539917
0.413231730461120605 0.469579517841339111 0.740725100040435791
0.40416330099105835 0.485408127307891846 0.739900887012481689
0.420239120721817017 0.459357112646102905 0.74031299352645874
0.416529357433319092 0.444888800382614136 0.730419933795928955
0.408285379409790039 0.446867406368255615 0.725474298000335693
0.407873243093490601 0.440272152423858643 0.721351087093353271
0.400041401386260986 0.441261470317840576 0.715581297874450684
0.394682735204696655 0.410305202007293701 0.69868004322052002
0.416941672563552856 0.429183900356292725 0.721763193607330322
0.410758554935455322 0.429307550191879272 0.718054056167602539
0.419826984405517578 0.410634905099868774 0.715169131755828857
0.412819594144821167 0.410593688488006592 0.712284266948699951
0.414880633354187012 0.394971251487731934 0.703215420246124268
0.407873243093490601 0.404080867767333984 0.705688178539276123
0.41364404559135437 0.390272170305252075 0.699504256248474121
0.410758554935455322 0.383429646492004395 0.693322122097015381
0.418178260326385498 0.397650659084320068 0.706512451171875
0.427658826112747192 0.408079326152801514 0.716405510902404785
0.428483277559280396 0.418095827102661133 0.722175359725952148
0.435078352689743042 0.41088220477104187 0.720114648342132568
0.400041401386260986 0.412407457828521729 0.704451799392700195
0.478359431028366089 0.410099148750305176 0.712696313858032227
0.477122873067855835 0.407996892929077148 0.708985209465026855
0.483305871486663818 0.406554222106933594 0.703215420246124268
0.47506183385848999 0.401525259017944336 0.697855710983276367
0.483718067407608032 0.403833597898483276 0.696619331836700439
0.480008363723754883 0.401113122701644897 0.692085325717926025
0.487015694379806519 0.403833597898483276 0.693322122097015381
0.484130293130874634 0.401236802339553833 0.687138974666595459
0.487840086221694946 0.402308523654937744 0.685077965259552002
0.473000794649124146 0.408079326152801514 0.71104586124420166
0.48825228214263916 0.40494653582572937 0.696207284927368164
0.494847476482391357 0.406801521778106689 0.700328528881072998
0.492786496877670288 0.405564934015274048 0.696207284927368164
0.497320711612701416 0.405729770660400391 0.696207284927368164
0.494435280561447144 0.405070185661315918 0.693322122097015381
0.499793887138366699 0.40630677342414856 0.69868004322052002
0.499793887138366699 0.405523717403411865 0.695383012294769287
0.501854896545410156 0.405729770660400391 0.696207284927368164
0.491137683391571045 0.404658049345016479 0.692909836769104004
0.489901095628738403 0.403792381286621094 0.689200043678283691
0.469703346490859985 0.398557543754577637 0.696619331836700439
0.47506183385848999 0.397527039051055908 0.689200043678283691
0.404987752437591553 0.408161729574203491 0.706100344657897949
0.403751164674758911 0.404740482568740845 0.703215420246124268
0.40416330099105835 0.393528580665588379 0.695383012294769287
0.398804813623428345 0.404781699180603027 0.69909214973449707
0.394682735204696655 0.398722380399703979 0.690436661243438721
0.397980362176895142 0.383099913597106934 0.677658438682556152
0.398804813623428345 0.379390150308609009 0.674360752105712891
0.403339028358459473 0.388458609580993652 0.690848767757415771
0.403339028358459473 0.383841961622238159 0.687138974666595459
0.400453537702560425 0.383924365043640137 0.683429300785064697
0.403751164674758911 0.379555016756057739 0.683841407299041748
0.400041401386260986 0.379555016756057739 0.677658438682556152
0.40416330099105835 0.368920296430587769 0.677246272563934326
0.407048791646957397 0.355358868837356567 0.67147529125213623
0.406636655330657959 0.363850116729736328 0.677658438682556152
0.410758554935455322 0.347032457590103149 0.67147529125213623
0.41364404559135437 0.345507204532623291 0.674360752105712891
0.41364404559135437 0.340602070093154907 0.67106318473815918
0.41529276967048645 0.336109071969985962 0.67106318473815918
0.414880633354187012 0.332399308681488037 0.668590009212493896
0.414056181907653809 0.327823877334594727 0.665292441844940186
0.410758554935455322 0.323619365692138672 0.655811786651611328
0.409521967172622681 0.326875776052474976 0.653338611125946045
0.413231730461120605 0.351278007030487061 0.677658438682556152
0.410346418619155884 0.366653174161911011 0.683841407299041748
0.410346418619155884 0.378400862216949463 0.690024495124816895
0.406636655330657959 0.37835964560508728 0.686726868152618408
0.407048791646957397 0.383141130208969116 0.690436661243438721
0.407460927963256836 0.372094094753265381 0.683841407299041748
0.410758554935455322 0.343611210584640503 0.668177902698516846
0.413231730461120605 0.337386876344680786 0.668177902698516846
0.412407457828521729 0.334130465984344482 0.664467930793762207
0.372836112976074219 0.458037912845611572 0.653338611125946045
0.367065310478210449 0.497238248586654663 0.666528940200805664
0.366653174161911011 0.49789777398109436 0.631492018699645996
0.360057950019836426 0.539323866367340088 0.594806194305419922
0.369538486003875732 0.490643024444580078 0.584501147270202637
0.373248249292373657 0.472094088792800903 0.577905952930450439
0.376545876264572144 0.458326578140258789 0.558120310306549072
0.379431366920471191 0.455276221036911011 0.578730404376983643
0.380667954683303833 0.451360434293746948 0.569249629974365234
0.385202169418334961 0.441714823246002197 0.581615626811981201
0.388911932706832886 0.436809688806533813 0.571722984313964844
0.388911932706832886 0.434624999761581421 0.579966962337493896
0.392209559679031372 0.430667966604232788 0.575020432472229004
0.393858283758163452 0.42337191104888916 0.581615626811981201
0.39839249849319458 0.420033037662506104 0.575844883918762207
0.398804813623428345 0.416941672563552856 0.577905952930450439
0.405812203884124756 0.411789089441299438 0.572135090827941895
0.406636655330657959 0.407131224870681763 0.575844883918762207
0.413231730461120605 0.405193805694580078 0.569661915302276611
0.412407457828521729 0.402184873819351196 0.573783814907073975
0.416529357433319092 0.401978820562362671 0.568837463855743408
0.416529357433319092 0.399299383163452148 0.573371708393096924
0.420239120721817017 0.399587869644165039 0.568837463855743408
0.409934103488922119 0.398722380399703979 0.580791234970092773
0.404575616121292114 0.396826207637786865 0.590684056282043457
0.402102440595626831 0.399010896682739258 0.590272009372711182
0.400865852832794189 0.397774308919906616 0.593981742858886719
0.394682735204696655 0.402184873819351196 0.597691476345062256
0.394270598888397217 0.400824666023254395 0.601401269435882568
0.393034011125564575 0.404699265956878662 0.597279369831085205
0.389736384153366089 0.402061253786087036 0.609645426273345947
0.387263208627700806 0.407790809869766235 0.606347799301147461
0.387263208627700806 0.405070185661315918 0.611294150352478027
0.381904542446136475 0.413479208946228027 0.615828335285186768
0.381492406129837036 0.410840988159179688 0.621599137783050537
0.380667954683303833 0.414097398519515991 0.61953812837600708
0.380255848169326782 0.408779948949813843 0.63272857666015625
0.378606915473937988 0.419250011444091797 0.624896764755249023
0.378194808959960938 0.411335736513137817 0.648392140865325928
0.379431366920471191 0.406842738389968872 0.648392140865325928
0.403339028358459473 0.402226090431213379 0.584501147270202637
0.400453537702560425 0.405688583850860596 0.585325419902801514
0.394682735204696655 0.405193805694580078 0.593981742858886719
0.393446147441864014 0.408161729574203491 0.593569576740264893
0.389736384153366089 0.408079326152801514 0.599752545356750488
0.390148520469665527 0.41088220477104187 0.596867024898529053
0.385614305734634399 0.413479208946228027 0.604286730289459229
0.389736384153366089 0.419167578220367432 0.59315723180770874
0.383965581655502319 0.426669538021087646 0.603050172328948975
0.387675344944000244 0.426422238349914551 0.593981742858886719
0.383965581655502319 0.435902804136276245 0.597691476345062256
0.385614305734634399 0.437716573476791382 0.588623106479644775
0.381904542446136475 0.446125388145446777 0.595218300819396973
0.380255848169326782 0.452926725149154663 0.590272009372711182
0.377782464027404785 0.461624205112457275 0.589859604835510254
0.375721633434295654 0.469826966524124146 0.598515927791595459
0.389736384153366089 0.42938995361328125 0.584501147270202637
0.391385108232498169 0.42349553108215332 0.587386488914489746
0.393858283758163452 0.420156687498092651 0.584913313388824463
0.393446147441864014 0.416076004505157471 0.588623106479644775
