ply
format ascii 1.0
element vertex 764
property float x
property float y
property float z
end_header
0.497949182987213135 0.584378302097320557 0.107297323644161224
0.50215446949005127 0.584449172019958496 0.103926539421081543
0.678476154804229736 0.589134454727172852 0.119771353900432587
0.682986915111541748 0.589161694049835205 0.122400335967540741
0.687083125114440918 0.589161694049835205 0.125771075487136841
0.690306603908538818 0.589156270027160645 0.130669072270393372
0.692673802375793457 0.589118123054504395 0.13730698823928833
0.69554823637008667 0.589096248149871826 0.143972158432006836
0.699393510818481445 0.589112639427185059 0.148111969232559204
0.703402400016784668 0.589112639427185059 0.152022719383239746
0.704869627952575684 0.589112639427185059 0.153462678194046021
0.708562195301055908 0.589090824127197266 0.157482489943504333
0.711982071399688721 0.589074492454528809 0.161753222346305847
0.714474678039550781 0.589074492454528809 0.165189430117607117
0.717436373233795166 0.58905261754989624 0.169743791222572327
0.72009807825088501 0.58905261754989624 0.174532681703567505
0.722421586513519287 0.589008986949920654 0.179517924785614014
0.724237918853759766 0.589008986949920654 0.184754073619842529
0.724996030330657959 0.588992595672607422 0.187246695160865784
0.726250529289245605 0.588970839977264404 0.192570105195045471
0.721265316009521484 0.588419973850250244 0.281459122896194458
0.720212638378143311 0.588376283645629883 0.286826193332672119
0.719154477119445801 0.588332653045654297 0.29223141074180603
0.717769086360931396 0.588294446468353271 0.297456622123718262
0.716165482997894287 0.588250875473022461 0.302780061960220337
0.709991216659545898 0.587890863418579102 0.355021536350250244
0.711294829845428467 0.587869048118591309 0.360301285982131958
0.712407469749450684 0.587847232818603516 0.36561921238899231
0.713241994380950928 0.587830841541290283 0.371100872755050659
0.713705599308013916 0.587787210941314697 0.376631498336791992
0.714125573635101318 0.58776545524597168 0.381676763296127319
0.714294672012329102 0.587743580341339111 0.387043803930282593
0.714332878589630127 0.587699949741363525 0.392558127641677856
0.714251041412353516 0.587678134441375732 0.397990643978118896
0.714082002639770508 0.587656319141387939 0.403461307287216187
0.713716506958007812 0.587596356868743896 0.40888291597366333
0.713323831558227539 0.587574541568756104 0.414342671632766724
0.661829650402069092 0.58531641960144043 0.740112721920013428
0.657891571521759033 0.585272789001464844 0.743859827518463135
0.653642654418945312 0.585229158401489258 0.747328758239746094
0.648673772811889648 0.585185527801513672 0.750459492206573486
0.643797636032104492 0.585147321224212646 0.75286489725112915
0.449263930320739746 0.5843619704246521 0.701414346694946289
0.448543965816497803 0.584383726119995117 0.695927262306213379
0.447616726160049438 0.584427356719970703 0.690565645694732666
0.446220427751541138 0.584443747997283936 0.685280501842498779
0.445091366767883301 0.584449172019958496 0.680006086826324463
0.44457322359085083 0.584487378597259521 0.67442089319229126
0.444447785615921021 0.584492862224578857 0.670401036739349365
0.444829583168029785 0.5845528244972229 0.665061295032501221
0.445462286472320557 0.584596455097198486 0.659677863121032715
0.446389526128768921 0.584618270397186279 0.654130816459655762
0.447365850210189819 0.584640085697174072 0.648343801498413086
0.448080360889434814 0.584700107574462891 0.643265843391418457
0.44879487156867981 0.584743738174438477 0.637833297252655029
0.449602097272872925 0.58476555347442627 0.63238447904586792
0.450660258531570435 0.584787368774414062 0.626597404479980469
0.45180019736289978 0.584825515747070312 0.62126314640045166
0.453234672546386719 0.584891021251678467 0.61596149206161499
0.454887330532073975 0.584929168224334717 0.6107635498046875
0.456747263669967651 0.58495640754699707 0.605549216270446777
0.458808988332748413 0.584994614124298096 0.60052037239074707
0.460510730743408203 0.585038304328918457 0.596724152565002441
0.463417887687683105 0.585103690624237061 0.590468049049377441
0.465108722448348999 0.585125505924224854 0.586868166923522949
0.465697795152664185 0.585141897201538086 0.58540642261505127
0.467175900936126709 0.585163712501525879 0.580192089080810547
0.467814058065414429 0.585207343101501465 0.574748694896697998
0.467977702617645264 0.585229158401489258 0.572337925434112549
0.468234062194824219 0.585272789001464844 0.566921710968017578
0.46802133321762085 0.585376441478729248 0.550580620765686035
0.467306822538375854 0.585376441478729248 0.5450935959815979
0.466248661279678345 0.585398256778717041 0.53963923454284668
0.464808732271194458 0.585485517978668213 0.533546745777130127
0.463586986064910889 0.585485517978668213 0.52819061279296875
0.462408840656280518 0.585480034351348877 0.522867262363433838
0.461230725049972534 0.585523724555969238 0.517532885074615479
0.460128933191299438 0.585545539855957031 0.512356758117675781
0.458689004182815552 0.58561098575592041 0.506951510906219482
0.457341790199279785 0.585589110851287842 0.501437187194824219
0.456147283315658569 0.58564913272857666 0.496304720640182495
0.454712808132171631 0.58568727970123291 0.490495860576629639
0.453747391700744629 0.585709154605865479 0.485674232244491577
0.45277106761932373 0.585714638233184814 0.480247169733047485
0.451723843812942505 0.585736393928527832 0.474918335676193237
0.450758427381515503 0.585736393928527832 0.469529479742050171
0.449809372425079346 0.58579641580581665 0.464156955480575562
0.448767602443695068 0.585840046405792236 0.457797199487686157
0.447993069887161255 0.585856378078460693 0.452391952276229858
0.447251290082931519 0.585878193378448486 0.446904957294464111
0.446694940328598022 0.585900068283081055 0.442514210939407349
0.446111351251602173 0.585943698883056641 0.437032610177993774
0.445555001497268677 0.585987269878387451 0.431589215993881226
0.44508594274520874 0.58600914478302002 0.425289511680603027
0.437302619218826294 0.58725816011428833 0.207111313939094543
0.43734624981880188 0.587279975414276123 0.201711550354957581
0.437809884548187256 0.587323606014251709 0.196289956569671631
0.438066214323043823 0.587361812591552734 0.194233685731887817
0.438911646604537964 0.587383627891540527 0.188872084021568298
0.439849793910980225 0.587427258491516113 0.183472320437431335
0.440951555967330933 0.587449073791503906 0.178110718727111816
0.442391514778137207 0.587492704391479492 0.172890931367874146
0.444022327661514282 0.587552726268768311 0.16766570508480072
0.444698691368103027 0.587552726268768311 0.165876686573028564
0.446684032678604126 0.587596356868743896 0.160705983638763428
0.448838502168655396 0.587639927864074707 0.155633464455604553
0.451331108808517456 0.587678134441375732 0.150855511426925659
0.454167366027832031 0.587721824645996094 0.146235689520835876
0.457418143749237061 0.58776545524597168 0.141801327466964722
0.460679829120635986 0.587787210941314697 0.137972384691238403
0.464481472969055176 0.587847232818603516 0.134061649441719055
0.468528568744659424 0.587869048118591309 0.130456343293190002
0.472924768924713135 0.587934494018554688 0.127085596323013306
0.477533668279647827 0.58799445629119873 0.124052993953227997
0.481035351753234863 0.588016331195831299 0.121947631239891052
0.498270988464355469 0.588207244873046875 0.107908196747303009
0.502596259117126465 0.588250875473022461 0.104662895202636719
0.508132398128509521 0.58831632137298584 0.101406671106815338
0.513183116912841797 0.588349044322967529 0.0992412865161895752
0.592499792575836182 0.588752627372741699 0.114098839461803436
0.597970485687255859 0.588796257972717285 0.113809786736965179
0.603408396244049072 0.588818132877349854 0.11347159743309021
0.608884513378143311 0.588856279850006104 0.113007999956607819
0.614327967166900635 0.588883578777313232 0.112517096102237701
0.619793176651000977 0.588899910449981689 0.111791670322418213
0.625263869762420654 0.588943541049957275 0.111011706292629242
0.6307181715965271 0.588965415954589844 0.110313549637794495
0.636150658130645752 0.588992595672607422 0.109871774911880493
0.641577720642089844 0.589008986949920654 0.10974632203578949
0.647386550903320312 0.589047133922576904 0.110177211463451385
0.65281909704208374 0.58905261754989624 0.110951721668243408
0.658142447471618652 0.589069008827209473 0.11203167587518692
0.663427770137786865 0.589090824127197266 0.113433435559272766
0.668576598167419434 0.589096248149871826 0.115162454545497894
0.673616409301757812 0.589156270027160645 0.117366001009941101
0.666013062000274658 0.592897891998291016 0.114671550691127777
0.668489336967468262 0.592936098575592041 0.115500599145889282
0.673490941524505615 0.592936098575592041 0.117742344737052917
0.677930712699890137 0.592957913875579834 0.120022252202033997
0.682741463184356689 0.592941582202911377 0.122814841568470001
0.686761319637298584 0.592957913875579834 0.126256540417671204
0.690006613731384277 0.592919766902923584 0.131181761622428894
0.691828370094299316 0.592919766902923584 0.135752499103546143
0.693808257579803467 0.592897891998291016 0.141615897417068481
0.695422708988189697 0.592919766902923584 0.144108504056930542
0.699349880218505859 0.592914283275604248 0.148237422108650208
0.703364253044128418 0.592919766902923584 0.152110010385513306
0.704798698425292969 0.592919766902923584 0.153539031744003296
0.708507657051086426 0.592897891998291016 0.157537028193473816
0.711883902549743652 0.592897891998291016 0.16186775267124176
0.714294672012329102 0.592876136302947998 0.165238529443740845
0.717267274856567383 0.59285426139831543 0.169858336448669434
0.719928979873657227 0.59285426139831543 0.174647212028503418
0.719241797924041748 0.592161595821380615 0.292302310466766357
0.717965424060821533 0.592117965221405029 0.297554820775985718
0.71629643440246582 0.592074334621429443 0.302796423435211182
0.714267432689666748 0.592030704021453857 0.307934403419494629
0.709102153778076172 0.591692507266998291 0.355256050825119019
0.710329413414001465 0.591692507266998291 0.360579490661621094
0.711474835872650146 0.591654360294342041 0.365881055593490601
0.712265670299530029 0.591654360294342041 0.371389925479888916
0.712702035903930664 0.591632544994354248 0.376227885484695435
0.713023841381072998 0.591588914394378662 0.381682217121124268
0.713198363780975342 0.591545224189758301 0.387071073055267334
0.713165640830993652 0.591523468494415283 0.392558127641677856
0.713154733180999756 0.591501593589782715 0.398012459278106689
0.712903797626495361 0.591463446617126465 0.403483122587203979
0.71256566047668457 0.591419816017150879 0.408904701471328735
0.712102055549621582 0.591419816017150879 0.414588123559951782
0.653135418891906738 0.58905261754989624 0.746903359889984131
0.648553788661956787 0.589008986949920654 0.749886810779571533
0.643519461154937744 0.588970839977264404 0.752401232719421387
0.449345767498016357 0.588207244873046875 0.69571453332901001
0.448598504066467285 0.588229060173034668 0.690287530422210693
0.44727855920791626 0.588250875473022461 0.685002267360687256
0.446013182401657104 0.588289022445678711 0.67976611852645874
0.44554409384727478 0.588272690773010254 0.675958991050720215
0.445205926895141602 0.588349044322967529 0.670488297939300537
0.445473194122314453 0.58835446834564209 0.665110349655151367
0.446056783199310303 0.588398158550262451 0.659677863121032715
0.446940392255783081 0.588441729545593262 0.65419083833694458
0.447911262512207031 0.588485360145568848 0.64848017692565918
0.448756694793701172 0.588523566722869873 0.643091320991516113
0.449525743722915649 0.588567197322845459 0.637604236602783203
0.450452983379364014 0.588589012622833252 0.632248103618621826
0.451500207185745239 0.588627219200134277 0.626799225807189941
0.452645599842071533 0.588670849800109863 0.621508598327636719
0.453992843627929688 0.588714480400085449 0.616223275661468506
0.455607324838638306 0.588758111000061035 0.610992670059204102
0.457499951124191284 0.588801741600036621 0.605756461620330811
0.459403514862060547 0.588823556900024414 0.600733041763305664
0.461514323949813843 0.588883578777313232 0.595655143260955811
0.463205158710479736 0.588921725749969482 0.592071592807769775
0.465572327375411987 0.588970839977264404 0.587135493755340576
0.467557728290557861 0.588992595672607422 0.582139313220977783
0.46802133321762085 0.588992595672607422 0.580448448657989502
0.468828558921813965 0.589030802249908447 0.575174152851104736
0.4689922034740448 0.589074492454528809 0.572376072406768799
0.469172209501266479 0.589074492454528809 0.566894471645355225
0.468697667121887207 0.58919990062713623 0.54513174295425415
0.467568635940551758 0.589259922504425049 0.538488388061523438
0.466515958309173584 0.589287161827087402 0.533050417900085449
0.465577811002731323 0.589325368404388428 0.528741538524627686
0.464230567216873169 0.589308977127075195 0.522436320781707764
0.463166981935501099 0.589347124099731445 0.517041981220245361
0.462027043104171753 0.589434444904327393 0.511680424213409424
0.460854381322860718 0.589456260204315186 0.506373345851898193
0.459485322237014771 0.589472651481628418 0.501077234745025635
0.458219915628433228 0.589478075504302979 0.495775610208511353
0.456998169422149658 0.589516282081604004 0.490474045276641846
0.455907315015792847 0.589510798454284668 0.485150605440139771
0.454936414957046509 0.58955991268157959 0.47971266508102417
0.453878283500671387 0.589554429054260254 0.474356502294540405
0.452940136194229126 0.589603543281555176 0.468973100185394287
0.452007442712783813 0.589625358581542969 0.463584244251251221
0.450992941856384277 0.589663505554199219 0.45823901891708374
0.450147539377212524 0.589701712131500244 0.452833771705627441
0.449433028697967529 0.589685320854187012 0.447406768798828125
0.44866943359375 0.589728951454162598 0.44157060980796814
0.448036700487136841 0.589788973331451416 0.436127215623855591
0.447545826435089111 0.589810788631439209 0.430765599012374878
0.447076767683029175 0.589816272258758545 0.425600379705429077
0.437389880418777466 0.591081678867340088 0.207160413265228271
0.437771707773208618 0.591125309467315674 0.201738819479942322
0.438377112150192261 0.591147065162658691 0.196289956569671631
0.439211636781692505 0.591201603412628174 0.190830186009407043
0.43950614333152771 0.59120708703994751 0.189062982797622681
0.440602481365203857 0.591228902339935303 0.183739572763442993
0.441742449998855591 0.591272592544555664 0.178377971053123474
0.443220555782318115 0.591332554817199707 0.173125475645065308
0.444878667593002319 0.5913543701171875 0.167916595935821533
0.445424109697341919 0.591376185417175293 0.166340291500091553
0.447420388460159302 0.591398000717163086 0.161218687891960144
0.449689358472824097 0.591441631317138672 0.156233444809913635
0.452220171689987183 0.591501593589782715 0.151411846280097961
0.45505097508430481 0.591545224189758301 0.146759301424026489
0.458263576030731201 0.591567099094390869 0.142368584871292114
0.461388885974884033 0.591632544994354248 0.138697817921638489
0.465157806873321533 0.591670751571655273 0.134803444147109985
0.469248563051223755 0.591714322566986084 0.131170868873596191
0.473513811826705933 0.591758012771606445 0.127772822976112366
0.47677004337310791 0.591779828071594238 0.125471100211143494
0.481378942728042603 0.591839790344238281 0.12253667414188385
0.486080586910247803 0.591883420944213867 0.119607701897621155
0.503016233444213867 0.59205251932144165 0.105530112981796265
0.508405089378356934 0.592096149921417236 0.102284811437129974
0.513412177562713623 0.592161595821380615 0.099993973970413208
0.597948610782623291 0.592581570148468018 0.113046161830425262
0.603397488594055176 0.592641592025756836 0.112691633403301239
0.608840882778167725 0.592641592025756836 0.112364374101161957
0.614327967166900635 0.592685222625732422 0.111955314874649048
0.619798660278320312 0.592701554298400879 0.111289873719215393
0.625231087207794189 0.592728853225708008 0.110553555190563202
0.630674540996551514 0.592767000198364258 0.110002666711807251
0.636150658130645752 0.592788875102996826 0.109637215733528137
0.641495883464813232 0.59281611442565918 0.109637215733528137
0.647326529026031494 0.592848837375640869 0.110302656888961792
0.652731776237487793 0.592870652675628662 0.111224442720413208
0.658011555671691895 0.592897891998291016 0.112402573227882385
0.663307726383209229 0.592914283275604248 0.113782517611980438
0.67597806453704834 0.596765041351318359 0.119645901024341583
0.677625298500061035 0.596765041351318359 0.120573140680789948
0.682446897029876709 0.596765041351318359 0.123403929173946381
0.686504900455474854 0.596786856651306152 0.126785606145858765
0.689630270004272461 0.596765041351318359 0.131869032979011536
0.691364705562591553 0.596743226051330566 0.136205211281776428
0.693508267402648926 0.596721410751342773 0.141866788268089294
0.69668269157409668 0.596721410751342773 0.146061152219772339
0.700702548027038574 0.596715986728668213 0.149846434593200684
0.704673290252685547 0.596721410751342773 0.153691753745079041
0.708300352096557617 0.596721410751342773 0.157749757170677185
0.71168750524520874 0.596721410751342773 0.162053212523460388
0.714054703712463379 0.596677780151367188 0.165434882044792175
0.717054545879364014 0.596677780151367188 0.169983789324760437
0.71914905309677124 0.59596329927444458 0.292269587516784668
0.71793818473815918 0.595941424369812012 0.297592997550964355
0.716334640979766846 0.595919609069824219 0.302867323160171509
0.714420139789581299 0.59585416316986084 0.308027118444442749
0.708087682723999023 0.595537841320037842 0.355566978454589844
0.709303975105285645 0.595516026020050049 0.360895812511444092
0.710291206836700439 0.595499634742736816 0.366262853145599365
0.711093008518218994 0.59545600414276123 0.371668070554733276
0.711594820022583008 0.595434188842773438 0.377220600843429565
0.711774826049804688 0.595412373542785645 0.381698548793792725
0.71201479434967041 0.595390558242797852 0.387131094932556152
0.711938440799713135 0.595346927642822266 0.392601758241653442
0.711812973022460938 0.59530872106552124 0.398012459278106689
0.711507499217987061 0.59530872106552124 0.403461307287216187
0.711223959922790527 0.595243275165557861 0.408937454223632812
0.710667550563812256 0.595199644565582275 0.41435357928276062
0.680701553821563721 0.593656063079833984 0.643254935741424561
0.680537879467010498 0.593617916107177734 0.648769259452819824
0.652622699737548828 0.59285426139831543 0.746401548385620117
0.647981107234954834 0.592848837375640869 0.749374151229858398
0.643186748027801514 0.592794299125671387 0.751937627792358398
0.450065702199935913 0.592047035694122314 0.695561826229095459
0.449558466672897339 0.592074334621429443 0.690003871917724609
0.448418527841567993 0.592096149921417236 0.684778690338134766
0.447147667407989502 0.592117965221405029 0.679455220699310303
0.446269512176513672 0.592117965221405029 0.674028158187866211
0.446051359176635742 0.592161595821380615 0.670510172843933105
0.446236789226531982 0.592199742794036865 0.665088534355163574
0.446825861930847168 0.592259764671325684 0.659699678421020508
0.447589457035064697 0.592281579971313477 0.654239892959594727
0.448587596416473389 0.592325270175933838 0.648692846298217773
0.449476659297943115 0.592341601848602295 0.643304049968719482
0.450360268354415894 0.592368841171264648 0.637833297252655029
0.451292932033538818 0.592434346675872803 0.632493555545806885
0.45231291651725769 0.592456161975860596 0.627061069011688232
0.453491032123565674 0.592499732971191406 0.621759474277496338
0.454805523157119751 0.592537939548492432 0.6164742112159729
0.456360012292861938 0.592559754848480225 0.611189007759094238
0.458138108253479004 0.592603385448455811 0.605980157852172852
0.460036218166351318 0.592647016048431396 0.600934863090515137
0.462108850479125977 0.592728853225708008 0.595742344856262207
0.463674247264862061 0.592750668525695801 0.592333436012268066
0.464394211769104004 0.592750668525695801 0.590811669826507568
0.466886818408966064 0.592794299125671387 0.585810005664825439
0.468866735696792603 0.592832505702972412 0.580710291862487793
0.469881236553192139 0.592876136302947998 0.575474143028259277
0.470093965530395508 0.592919766902923584 0.572392463684082031
0.470344871282577515 0.592919766902923584 0.566927194595336914
0.470219403505325317 0.593088865280151367 0.54516446590423584
0.469679445028305054 0.59311068058013916 0.539688348770141602
0.469384908676147461 0.593105196952819824 0.53799748420715332
0.468414038419723511 0.59314882755279541 0.532586812973022461
0.467394083738327026 0.593192458152770996 0.527181565761566162
0.466630488634109497 0.593214273452758789 0.523292660713195801
0.466335952281951904 0.593208849430084229 0.52185821533203125
0.465403258800506592 0.593252420425415039 0.516431152820587158
0.464601486921310425 0.593279778957366943 0.512356758117675781
0.463499695062637329 0.593323409557342529 0.506973326206207275
0.462234318256378174 0.593323409557342529 0.501502692699432373
0.460892558097839355 0.593361556529998779 0.496021062135696411
0.459583491086959839 0.593377947807312012 0.490572214126586914
0.458432644605636597 0.593377947807312012 0.485123336315155029
0.457330852746963501 0.593405187129974365 0.479145407676696777
0.456239998340606689 0.593448817729949951 0.47373470664024353
0.455307334661483765 0.593470633029937744 0.468771278858184814
0.454374611377716064 0.593443334102630615 0.463256984949111938
0.453414678573608398 0.593525230884552002 0.457857221364974976
0.452558338642120361 0.59355241060256958 0.452413797378540039
0.451712936162948608 0.593590617179870605 0.446735858917236328
0.45095476508140564 0.593596100807189941 0.441412448883056641
0.450447529554367065 0.593596100807189941 0.43725624680519104
0.449809372425079346 0.593634247779846191 0.430754721164703369
0.449389368295669556 0.59369426965713501 0.42534947395324707
0.437728047370910645 0.594883322715759277 0.207209497690200806
0.438278943300247192 0.594948768615722656 0.201749727129936218
0.439037084579467773 0.594970583915710449 0.196311771869659424
0.439298897981643677 0.594992399215698242 0.194686383008956909
0.440302491188049316 0.595030605792999268 0.189297527074813843
0.441109716892242432 0.595052361488342285 0.185441315174102783
0.44144788384437561 0.595074176788330078 0.183963194489479065
0.442642390727996826 0.595095992088317871 0.178628876805305481
0.444109618663787842 0.595161497592926025 0.173414558172225952
0.44584953784942627 0.595177888870239258 0.168216586112976074
0.448287606239318848 0.595243275165557861 0.161769583821296692
0.450616598129272461 0.595286965370178223 0.156822532415390015
0.453201949596405029 0.595346927642822266 0.152022719383239746
0.455989092588424683 0.595368742942810059 0.147326573729515076
0.459234416484832764 0.595434188842773438 0.142941296100616455
0.462823361158370972 0.59545600414276123 0.138730570673942566
0.46592143177986145 0.595499634742736816 0.135577961802482605
0.469968527555465698 0.595537841320037842 0.131929010152816772
0.472804784774780273 0.595575988292694092 0.129616394639015198
0.474233806133270264 0.595581471920013428 0.128514617681503296
0.478711783885955811 0.595625102519989014 0.125280216336250305
0.481728017330169678 0.5956687331199646 0.123251214623451233
0.486353307962417603 0.59570688009262085 0.120196789503097534
0.490771293640136719 0.595750510692596436 0.117038741707801819
0.494905650615692139 0.595794200897216797 0.113166160881519318
0.499067306518554688 0.59585416316986084 0.109473608434200287
0.503419876098632812 0.595897793769836426 0.106342822313308716
0.50859600305557251 0.595941424369812012 0.103272028267383575
0.603397488594055176 0.596426844596862793 0.112206213176250458
0.608808159828186035 0.596465051174163818 0.111938938498497009
0.614262521266937256 0.596492350101470947 0.111578971147537231
0.619733154773712158 0.596508681774139404 0.111011706292629242
0.625209331512451172 0.596530556678771973 0.110351748764514923
0.630636334419250488 0.596574127674102783 0.109899044036865234
0.636047005653381348 0.596595942974090576 0.109664477407932281
0.641495883464813232 0.596617758274078369 0.109811753034591675
0.647244811058044434 0.596661388874053955 0.110537178814411163
0.652584493160247803 0.596677780151367188 0.111562594771385193
0.65790247917175293 0.59669959545135498 0.112833462655544281
0.663182318210601807 0.596721410751342773 0.114235222339630127
0.668374776840209961 0.596721410751342773 0.115926042199134827
0.673310935497283936 0.596743226051330566 0.118167787790298462
0.65954965353012085 0.600523054599761963 0.113907963037490845
0.663013219833374023 0.600523054599761963 0.114796996116638184
0.668243885040283203 0.600523054599761963 0.116460591554641724
0.673109114170074463 0.600544929504394531 0.118680469691753387
0.677330732345581055 0.600566685199737549 0.121074937283992767
0.68201059103012085 0.600588560104370117 0.123900279402732849
0.686123132705688477 0.600610315799713135 0.127451002597808838
0.689161181449890137 0.600588560104370117 0.132534444332122803
0.690813839435577393 0.600588560104370117 0.136728823184967041
0.693213760852813721 0.600566685199737549 0.142150402069091797
0.696393668651580811 0.600544929504394531 0.146301150321960449
0.700489819049835205 0.600523054599761963 0.150119155645370483
0.704378724098205566 0.600523054599761963 0.153926268219947815
0.708005845546722412 0.600523054599761963 0.158060640096664429
0.720850765705108643 0.599868535995483398 0.281410038471221924
0.720081746578216553 0.599830389022827148 0.286864370107650757
0.7196999192237854 0.599808573722839355 0.288964271545410156
0.718576312065124512 0.599764883518218994 0.294413119554519653
0.717845439910888672 0.599743127822875977 0.297554820775985718
0.716323673725128174 0.599699497222900391 0.302867323160171509
0.714512825012207031 0.599694013595581055 0.30799439549446106
0.712314784526824951 0.599639475345611572 0.313105076551437378
0.707836747169494629 0.599361300468444824 0.359935849905014038
0.708856761455535889 0.599323153495788574 0.365346550941467285
0.709620356559753418 0.599279463291168213 0.370795398950576782
0.710083961486816406 0.599279463291168213 0.376271545886993408
0.710165739059448242 0.599279463291168213 0.377662420272827148
0.710378527641296387 0.59925764799118042 0.383242130279541016
0.710493028163909912 0.599235892295837402 0.38716927170753479
0.710411190986633301 0.599154055118560791 0.392623543739318848
0.710323989391326904 0.599132180213928223 0.398023337125778198
0.710029423236846924 0.59911036491394043 0.403515875339508057
0.709658503532409668 0.599066734313964844 0.408959269523620605
0.709151268005371094 0.599023163318634033 0.414397209882736206
0.679659783840179443 0.597485065460205078 0.637871503829956055
0.679747045040130615 0.59746319055557251 0.643265843391418457
0.679692447185516357 0.597457706928253174 0.648769259452819824
0.67985612154006958 0.597375929355621338 0.654229044914245605
0.680025219917297363 0.597354114055633545 0.659699678421020508
0.656244337558746338 0.596743226051330566 0.742381691932678223
0.652017295360565186 0.596677780151367188 0.745828807353973389
0.647452056407928467 0.596655964851379395 0.748845040798187256
0.642783105373382568 0.596634149551391602 0.751310467720031738
0.451805651187896729 0.595832347869873047 0.700748860836029053
0.45092204213142395 0.59585416316986084 0.695376396179199219
0.45037117600440979 0.595897793769836426 0.689802110195159912
0.449531197547912598 0.595941424369812012 0.684451401233673096
0.44824942946434021 0.595941424369812012 0.679138898849487305
0.44727855920791626 0.59596329927444458 0.673766374588012695
0.447076767683029175 0.596017777919769287 0.668153882026672363
0.447164028882980347 0.596023261547088623 0.665148556232452393
0.447698533535003662 0.596066892147064209 0.659677863121032715
0.448418527841567993 0.596110522747039795 0.65433812141418457
0.449389368295669556 0.596154153347015381 0.648943722248077393
0.450414806604385376 0.596170544624328613 0.643369436264038086
0.451249301433563232 0.596208691596984863 0.638106048107147217
0.452220171689987183 0.59625774621963501 0.632722616195678711
0.45331650972366333 0.596279621124267578 0.627361059188842773
0.454625517129898071 0.596323251724243164 0.621514022350311279
0.455983668565750122 0.596361398696899414 0.61610335111618042
0.457216322422027588 0.596405029296875 0.611412584781646729
0.458901733160018921 0.596443235874176025 0.606290996074676514
0.460679829120635986 0.596470534801483154 0.601153075695037842
0.462037950754165649 0.596508681774139404 0.597733199596405029
0.462741553783416748 0.59654688835144043 0.595998704433441162
0.465032368898391724 0.596574127674102783 0.59096980094909668
0.466586828231811523 0.596595942974090576 0.587800860404968262
0.468910396099090576 0.596661388874053955 0.582897424697875977
0.470726668834686279 0.596677780151367188 0.5775412917137146
0.471064835786819458 0.59669959545135498 0.575757741928100586
0.471403002738952637 0.596721410751342773 0.572419703006744385
0.471697539091110229 0.596765041351318359 0.566981732845306396
0.471828460693359375 0.596808671951293945 0.561516523361206055
0.471953898668289185 0.596846878528594971 0.55606764554977417
0.472035706043243408 0.596868693828582764 0.550618827342987061
0.471866637468338013 0.596912264823913574 0.545169949531555176
0.471463024616241455 0.596934139728546143 0.539688348770141602
0.470813959836959839 0.596994102001190186 0.53426128625869751
0.47047579288482666 0.596999585628509521 0.532063186168670654
0.46963036060333252 0.597010493278503418 0.526657998561859131
0.468708574771881104 0.597059547901153564 0.521220028400421143
0.467901349067687988 0.59710317850112915 0.51582568883895874
0.46692502498626709 0.597141385078430176 0.510393202304840088
0.466221421957015991 0.597168684005737305 0.506967902183532715
0.464956015348434448 0.597163200378417969 0.501437187194824219
0.4621906578540802 0.597266852855682373 0.489137709140777588
0.46109434962272644 0.59724503755569458 0.483748853206634521
0.459992587566375732 0.597250461578369141 0.478359997272491455
0.458978086709976196 0.597288668155670166 0.473014771938323975
0.458007186651229858 0.597294092178344727 0.467669516801834106
0.456992685794830322 0.597315967082977295 0.462286144495010376
0.456065475940704346 0.59739232063293457 0.45690271258354187
0.455176413059234619 0.597414076328277588 0.451535642147064209
0.454461902379989624 0.597457706928253174 0.44706311821937561
0.453752845525741577 0.597479522228240967 0.441652446985244751
0.453120142221450806 0.597485065460205078 0.43621450662612915
0.452514708042144775 0.597539544105529785 0.430760174989700317
0.451882004737854004 0.597545027732849121 0.424242258071899414
0.438404381275177002 0.598728597164154053 0.207274943590164185
0.43904799222946167 0.598772227764129639 0.201776996254920959
0.439249813556671143 0.598772227764129639 0.200337052345275879
0.44014430046081543 0.598815858364105225 0.194937288761138916
0.441153377294540405 0.59885406494140625 0.1895647794008255
0.442331492900848389 0.598897695541381836 0.184241369366645813
0.44360235333442688 0.598941326141357422 0.178928866982460022
0.445080459117889404 0.598963141441345215 0.173719987273216248
0.446853131055831909 0.599023163318634033 0.168483838438987732
0.448882132768630981 0.599066734313964844 0.16338406503200531
0.451205670833587646 0.599088609218597412 0.158387899398803711
0.453741937875747681 0.599154055118560791 0.153375387191772461
0.457123607397079468 0.599214017391204834 0.147991970181465149
0.460292577743530273 0.599214017391204834 0.143590360879898071
0.463881492614746094 0.599279463291168213 0.13942323625087738
0.466717749834060669 0.599323153495788574 0.13641791045665741
0.470770299434661865 0.599361300468444824 0.132736250758171082
0.474953770637512207 0.59940493106842041 0.129338234663009644
0.479431778192520142 0.599448561668395996 0.126054733991622925
0.482175290584564209 0.599470376968383789 0.124091155827045441
0.486691445112228394 0.599508583545684814 0.120873123407363892
0.491104006767272949 0.5995522141456604 0.117616899311542511
0.495314747095108032 0.599595844745635986 0.113984324038028717
0.499552726745605469 0.599661290645599365 0.110389910638332367
0.504008948802947998 0.599721312522888184 0.107297323644161224
0.508868694305419922 0.599764883518218994 0.104302890598773956
0.603359341621398926 0.600228548049926758 0.11196620762348175
0.608808159828186035 0.600272178649902344 0.11178077757358551
0.614240705966949463 0.600293993949890137 0.111480787396430969
0.619711339473724365 0.60031580924987793 0.110940791666507721
0.625187516212463379 0.60035395622253418 0.110335372388362885
0.630636334419250488 0.600375831127166748 0.109948135912418365
0.636003375053405762 0.600419402122497559 0.109822683036327362
0.641474068164825439 0.600435793399810791 0.110100850462913513
0.6471138596534729 0.600463032722473145 0.110902637243270874
0.652437269687652588 0.600484907627105713 0.112129859626293182
0.657760679721832275 0.600523054599761963 0.113417059183120728
0.673179984092712402 0.604368329048156738 0.119629524648189545
0.676954448223114014 0.604390203952789307 0.121713072061538696
0.681596040725708008 0.6044120192527771 0.124576613306999207
0.685648620128631592 0.6044120192527771 0.128247350454330444
0.688659369945526123 0.604390203952789307 0.133319884538650513
0.690306603908538818 0.604390203952789307 0.137366965413093567
0.692782819271087646 0.604346573352813721 0.142575845122337341
0.696088194847106934 0.604324698448181152 0.146699324250221252
0.700184345245361328 0.604346573352813721 0.15045735239982605
0.70404052734375 0.604346573352813721 0.154242634773254395
0.707673132419586182 0.604346573352813721 0.158338814973831177
0.720507144927978516 0.603670179843902588 0.281371861696243286
0.719716250896453857 0.603653848171234131 0.286777108907699585
0.718827247619628906 0.603610217571258545 0.292275041341781616
0.717643678188323975 0.603566586971282959 0.297554820775985718
0.716198265552520752 0.603506565093994141 0.302823692560195923
0.714469254016876221 0.603506565093994141 0.308114379644393921
0.712489306926727295 0.603441119194030762 0.313143253326416016
0.70682227611541748 0.603184759616851807 0.361588507890701294
0.707700371742248535 0.603146612644195557 0.367015540599822998
0.708224058151245117 0.603102982044219971 0.370817214250564575
0.708627641201019287 0.603081166744232178 0.376271545886993408
0.708884000778198242 0.603059351444244385 0.381704032421112061
0.70897674560546875 0.602999329566955566 0.387191087007522583
0.708856761455535889 0.602999329566955566 0.392618119716644287
0.708643972873687744 0.602977514266967773 0.398126959800720215
0.70850217342376709 0.60295569896697998 0.402364999055862427
0.707929491996765137 0.602933883666992188 0.408937454223632812
0.707493126392364502 0.602912068367004395 0.413415402173995972
0.706789553165435791 0.602846622467041016 0.418902486562728882
0.678519845008850098 0.60134124755859375 0.637893319129943848
0.678732514381408691 0.601243078708648682 0.643304049968719482
0.678770720958709717 0.601259410381317139 0.648791015148162842
0.67897796630859375 0.60119938850402832 0.654229044914245605
0.679108917713165283 0.601177573204040527 0.659688770771026611
0.679021596908569336 0.601139426231384277 0.665088534355163574
0.659462451934814453 0.600588560104370117 0.737925469875335693
0.655568063259124756 0.600544929504394531 0.741743505001068115
0.651357352733612061 0.600484907627105713 0.745114326477050781
0.646737515926361084 0.600463032722473145 0.74821782112121582
0.452852874994277954 0.599661290645599365 0.700432538986206055
0.451843827962875366 0.599699497222900391 0.695049166679382324
0.451249301433563232 0.599721312522888184 0.689627528190612793
0.450572967529296875 0.599764883518218994 0.684162259101867676
0.449389368295669556 0.599786758422851562 0.678855240345001221
0.449094861745834351 0.599764883518218994 0.677338957786560059
0.44824942946434021 0.599808573722839355 0.671639144420623779
0.448047608137130737 0.599830389022827148 0.665175795555114746
0.448625773191452026 0.599884927272796631 0.659716010093688965
0.449389368295669556 0.599912166595458984 0.654267191886901855
0.45031660795211792 0.59995579719543457 0.649216532707214355
0.45128747820854187 0.599999487400054932 0.643833041191101074
0.452220171689987183 0.600015819072723389 0.638444244861602783
0.453403770923614502 0.600059449672698975 0.632471740245819092
0.454391002655029297 0.600103080272674561 0.627721071243286133
0.455640017986297607 0.600146710872650146 0.622403085231781006
0.456785440444946289 0.600184917449951172 0.617074191570281982
0.458061754703521729 0.600228548049926758 0.611701667308807373
0.459654420614242554 0.600250363349914551 0.606503725051879883
0.461432516574859619 0.600293993949890137 0.601365804672241211
0.462697923183441162 0.60031580924987793 0.598153173923492432
0.464857816696166992 0.600392162799835205 0.593086123466491699
0.471583008766174316 0.600517570972442627 0.578037619590759277
0.472248435020446777 0.60050123929977417 0.576014101505279541
0.472979307174682617 0.600544929504394531 0.570597946643829346
0.473175644874572754 0.600588560104370117 0.566976308822631836
0.473350197076797485 0.600670337677001953 0.561527431011199951
0.473519295454025269 0.600653946399688721 0.55603492259979248
0.47363927960395813 0.600692152976989746 0.550580620765686035
0.473693817853927612 0.600713968276977539 0.545175373554229736
0.473682910203933716 0.600713968276977539 0.542590022087097168
0.473355650901794434 0.600801229476928711 0.536922991275787354
0.473148375749588013 0.600801229476928711 0.534277617931365967
0.47263568639755249 0.600899398326873779 0.528894245624542236
0.471839368343353271 0.600926697254180908 0.523369014263153076
0.471064835786819458 0.600926697254180908 0.517958343029022217
0.47060123085975647 0.600926697254180908 0.51512753963470459
0.469755798578262329 0.600964844226837158 0.509651422500610352
0.468572229146957397 0.601008474826812744 0.504289805889129639
0.467944979667663574 0.601024866104125977 0.50151902437210083
0.464601486921310425 0.601117551326751709 0.485188812017440796
0.464110583066940308 0.601139426231384277 0.482947051525115967
0.463036090135574341 0.601139426231384277 0.477612733840942383
0.462365210056304932 0.60116124153137207 0.474198341369628906
0.461394339799880981 0.601177573204040527 0.468814939260482788
0.461023449897766113 0.60116124153137207 0.466845959424972534
0.460036218166351318 0.601259410381317139 0.461533397436141968
0.459403514862060547 0.601286649703979492 0.457955420017242432
0.45851445198059082 0.601281225681304932 0.452511966228485107
0.458219915628433228 0.601303040981292725 0.450733870267868042
0.457374513149261475 0.60134124755859375 0.445355921983718872
0.456534534692764282 0.601286649703979492 0.439999788999557495
0.455896377563476562 0.601324856281280518 0.434545457363128662
0.455405503511428833 0.601346671581268311 0.430787444114685059
0.454892784357070923 0.601428508758544922 0.425376743078231812
0.454712808132171631 0.601433932781219482 0.423565924167633057
0.43928799033164978 0.602552056312561035 0.207296773791313171
0.440007954835891724 0.602590262889862061 0.201837003231048584
0.440907925367355347 0.602617502212524414 0.196360871195793152
0.442206054925918579 0.602677524089813232 0.189864769577980042
0.44336235523223877 0.602699339389801025 0.184524998068809509
0.444709599018096924 0.602764785289764404 0.179239764809608459
0.446225881576538086 0.602786600589752197 0.174030885100364685
0.448047608137130737 0.602868437767028809 0.168860182166099548
0.450109362602233887 0.602890253067016602 0.163782224059104919
0.452852874994277954 0.60295027494430542 0.158186092972755432
0.455443680286407471 0.602999329566955566 0.153402656316757202
0.458318114280700684 0.603015661239624023 0.148755595088005066
0.461563408374786377 0.603081166744232178 0.14429396390914917
0.46507599949836731 0.603102982044219971 0.140072301030158997
0.467612266540527344 0.603124737739562988 0.13743242621421814
0.471621185541152954 0.603184759616851807 0.13371257483959198
0.475848287343978882 0.6032065749168396 0.13021637499332428
0.480239003896713257 0.603272020816802979 0.12686195969581604
0.482737094163894653 0.603293895721435547 0.125056594610214233
0.487138718366622925 0.603348433971405029 0.121773093938827515
0.491502165794372559 0.603370189666748047 0.118418686091899872
0.493345737457275391 0.603375673294067383 0.116864204406738281
0.497594654560089111 0.603419303894042969 0.113395236432552338
0.500081837177276611 0.603462934494018555 0.111404433846473694
0.504537999629974365 0.603522896766662598 0.108284540474414825
0.608764529228210449 0.604073822498321533 0.111704416573047638
0.61421889066696167 0.604117453098297119 0.1114153191447258
0.619689583778381348 0.604139268398284912 0.110989883542060852
0.625143885612487793 0.604161083698272705 0.110548108816146851
0.630592703819274902 0.604177415370941162 0.110199034214019775
0.635997951030731201 0.604221105575561523 0.110188096761703491
0.641430437564849854 0.604242920875549316 0.110575377941131592
0.646797537803649902 0.604264736175537109 0.111442588269710541
0.652289986610412598 0.604286551475524902 0.112669810652732849
0.657591581344604492 0.604324698448181152 0.11399521678686142
0.662833213806152344 0.604330182075500488 0.115413352847099304
0.667998433113098145 0.604368329048156738 0.117076903581619263
0.670943796634674072 0.60818636417388916 0.119558617472648621
0.672727286815643311 0.608213663101196289 0.120398595929145813
0.676479876041412354 0.608213663101196289 0.122487589716911316
0.681121528148651123 0.608191847801208496 0.12543293833732605
0.685108661651611328 0.608213663101196289 0.129136428236961365
0.688141226768493652 0.608213663101196289 0.134301647543907166
0.6897011399269104 0.608191847801208496 0.137846946716308594
0.692286550998687744 0.60818636417388916 0.143044918775558472
0.695706367492675781 0.608170032501220703 0.147113829851150513
0.699731647968292236 0.608153700828552246 0.15087185800075531
0.703653275966644287 0.608170032501220703 0.154668077826499939
0.707318663597106934 0.608170032501220703 0.158709704875946045
0.720125317573547363 0.607515513896942139 0.278121083974838257
0.71962350606918335 0.607477307319641113 0.283515393733978271
0.718947231769561768 0.607433676719665527 0.288926094770431519
0.718472659587860107 0.607411861419677734 0.292215049266815186
0.718052685260772705 0.607390046119689941 0.294418603181838989
0.716830909252166748 0.607368230819702148 0.299905627965927124
0.715996444225311279 0.607346415519714355 0.302829146385192871
0.714501917362213135 0.607308268547058105 0.308114379644393921
0.712489306926727295 0.607286453247070312 0.313186883926391602
0.705125987529754639 0.606991887092590332 0.35998496413230896
0.705458700656890869 0.606986463069915771 0.361943036317825317
0.706265926361083984 0.606948256492614746 0.367402821779251099
0.70681685209274292 0.606926441192626953 0.372949838638305664
0.706985890865325928 0.60690462589263916 0.376287877559661865
0.707116842269897461 0.606860995292663574 0.381785839796066284
0.707111358642578125 0.606860995292663574 0.387191087007522583
0.706991314888000488 0.606822788715362549 0.392607212066650391
0.706735014915466309 0.606822788715362549 0.398110628128051758
0.706402301788330078 0.606801033020019531 0.403559476137161255
0.705971419811248779 0.606779158115386963 0.408986538648605347
0.705333232879638672 0.606735527515411377 0.414462655782699585
0.704580545425415039 0.606691896915435791 0.419900625944137573
0.676703572273254395 0.605175554752349854 0.629253685474395752
0.677199840545654297 0.605131983757019043 0.634702563285827637
0.677581667900085449 0.605126500129699707 0.640315055847167969
0.677756249904632568 0.605066537857055664 0.643369436264038086
0.677887082099914551 0.605061054229736328 0.648807406425476074
0.678050756454467773 0.605006515979766846 0.654250800609588623
0.678127110004425049 0.604984700679779053 0.659688770771026611
0.678012609481811523 0.60496288537979126 0.665148556232452393
0.668456614017486572 0.604559242725372314 0.723329782485961914
0.665718555450439453 0.604537427425384521 0.728129565715789795
0.662582337856292725 0.604477405548095703 0.732536673545837402
0.658655226230621338 0.604433834552764893 0.737210988998413086
0.654766261577606201 0.604368329048156738 0.741029024124145508
0.650599181652069092 0.604330182075500488 0.744410693645477295
0.645973861217498779 0.604286551475524902 0.747470557689666748
0.455569148063659668 0.603484749794006348 0.704992353916168213
0.454080104827880859 0.603517472743988037 0.700170755386352539
0.452989250421524048 0.603544771671295166 0.694770932197570801
0.452192902565002441 0.603544771671295166 0.689398467540740967
0.451669275760650635 0.603588402271270752 0.683873295783996582
0.450742036104202271 0.603632032871246338 0.678462564945220947
0.449651181697845459 0.603653848171234131 0.673139095306396484
0.449176669120788574 0.60368657112121582 0.667477548122406006
0.449111223220825195 0.603670179843902588 0.665197670459747314
0.449656665325164795 0.603713870048522949 0.659699678421020508
0.450414806604385376 0.603757500648498535 0.654289007186889648
0.451331108808517456 0.603779315948486328 0.649532854557037354
0.452307432889938354 0.603839278221130371 0.644143998622894287
0.45331650972366333 0.603861093521118164 0.638706028461456299
0.454434633255004883 0.603904783725738525 0.633382618427276611
0.455689132213592529 0.603948414325714111 0.628064632415771484
0.456910908222198486 0.603991985321044922 0.622752130031585693
0.457941740751266479 0.604030191898345947 0.617412388324737549
0.459108978509902954 0.60405200719833374 0.612056195735931396
0.460499823093414307 0.604095697402954102 0.606792807579040527
0.462277919054031372 0.604117453098297119 0.601573050022125244
0.464301496744155884 0.604177415370941162 0.596467792987823486
0.474451959133148193 0.6044120192527771 0.570990681648254395
0.474795609712600708 0.604455649852752686 0.567019939422607422
0.474991947412490845 0.604510188102722168 0.561532855033874512
0.47521558403968811 0.604515612125396729 0.556105852127075195
0.475417375564575195 0.604537427425384521 0.550656974315643311
0.475602835416793823 0.604559242725372314 0.545180857181549072
0.475711911916732788 0.604646563529968262 0.539759218692779541
0.475630104541778564 0.604684710502624512 0.534277617931365967
0.475297391414642334 0.604728341102600098 0.528861522674560547
0.474708348512649536 0.604750216007232666 0.523401737213134766
0.474162906408309937 0.604771971702575684 0.517936527729034424
0.473530203104019165 0.604870140552520752 0.512400388717651367
0.472586601972579956 0.604875624179840088 0.507027924060821533
0.467443197965621948 0.605001091957092285 0.482101649045944214
0.466423213481903076 0.605022847652435303 0.476701885461807251
0.465250551700592041 0.605082869529724121 0.47138938307762146
0.464301496744155884 0.605082869529724121 0.465995073318481445
0.463330626487731934 0.605061054229736328 0.460606187582015991
0.462316125631332397 0.605066537857055664 0.455239146947860718
0.461356163024902344 0.605131983757019043 0.449899375438690186
0.460499823093414307 0.605148375034332275 0.444510489702224731
0.460096210241317749 0.605131983757019043 0.44166332483291626
0.459359884262084961 0.605235576629638672 0.436230838298797607
0.458727180957794189 0.605279207229614258 0.430831074714660645
0.458345383405685425 0.605273783206939697 0.428267568349838257
0.457979947328567505 0.605273783206939697 0.425354927778244019
0.440307945013046265 0.606397330760955811 0.207334950566291809
0.441066116094589233 0.606441020965576172 0.201864257454872131
0.44217333197593689 0.606484651565551758 0.195548176765441895
0.443138718605041504 0.606506466865539551 0.190950185060501099
0.444578677415847778 0.606544613838195801 0.184901341795921326
0.445974975824356079 0.606610119342803955 0.179643377661705017
0.447578549385070801 0.606670081615447998 0.174407228827476501
0.449607551097869873 0.606708288192749023 0.168920189142227173
0.451631098985671997 0.606735527515411377 0.164196759462356567
0.454123735427856445 0.606779158115386963 0.158949717879295349
